0.123205 0.121013 0.120668 0.120325 0.119985 0.118643 0.116365 0.114174 0.112063 0.110191 0.108538 0.106934 0.105376 0.102890 0.099607 0.096527 0.093632 0.092623 0.093382 0.094154 0.094938 0.094975 0.094263 0.093561 0.092870 0.092240 0.091670 0.091106 0.090549 0.090068 0.089660 0.089256 0.088855 0.088330 0.087686 0.087050 0.086424 0.086321 0.086738 0.087159 0.087584 0.086786 0.084829 0.082959 0.081169 0.079661 0.078407 0.077191 0.076013 0.076168 0.077673 0.079238 0.080868 0.081518 0.081139 0.080763 0.080391 0.080080 0.079829 0.079579 0.079330 0.079202 0.079193 0.079185 0.079176 0.079358 0.079734 0.080113 0.080496 0.080665 0.080618 0.080570 0.080523 0.080138 0.079426 0.078727 0.078040 0.076875 0.075274 0.073740 0.072266 0.071862 0.072492 0.073133 0.073785 0.073920 0.073532 0.073147 0.072767 0.072216 0.071503 0.070804 0.070118 0.069757 0.069711 0.069666 0.069621 0.069761 0.070089 0.070420 0.070754 0.070848 0.070700 0.070552 0.070405 0.069977 0.069279 0.068595 0.067924 0.067035 0.065946 0.064891 0.063870 0.063929 0.065075 0.066263 0.067494 0.067987 0.067708 0.067431 0.067157 0.066701 0.066072 0.065454 0.064848 0.064570 0.064610 0.064650 0.064691 0.064800 0.064979 0.065160 0.065341 0.065431 0.065428 0.065426 0.065423 0.064864 0.063778 0.062727 0.061710 0.060643 0.059534 0.058464 0.057431 0.057156 0.057616 0.058084 0.058559 0.058673 0.058423 0.058174 0.057928 0.057730 0.057579 0.057429 0.057281 0.057154 0.057049 0.056944 0.056840 0.056862 0.057012 0.057162 0.057313 0.057505 0.057739 0.057976 0.058214 0.057980 0.057284 0.056605 0.055942 0.055430 0.055062 0.054699 0.054341 0.054409 0.054905 0.055411 0.055926 0.056080 0.055868 0.055657 0.055448 0.055330 0.055303 0.055276 0.055249 0.055066 0.054730 0.054398 0.054071 0.054033 0.054286 0.054540 0.054797 0.055050 0.055298 0.055548 0.055800 0.055574 0.054881 0.054205 0.053546 0.053103 0.052867 0.052633 0.052400 0.052474 0.052855 0.053242 0.053634 0.053938 0.054151 0.054366 0.054582 0.054520 0.054180 0.053844 0.053513 0.053382 0.053449 0.053516 0.053583 0.053722 0.053934 0.054147 0.054362 0.054660 0.055045 0.055435 0.055830 0.055755 0.055213 0.054681 0.054159 0.053634 0.053105 0.052587 0.052079 0.052181 0.052899 0.053638 0.054397 0.054928 0.055214 0.055504 0.055797 0.055924 0.055884 0.055844 0.055803 0.055646 0.055373 0.055104 0.054837 0.054826 0.055070 0.055317 0.055566 0.055735 0.055822 0.055909 0.055997 0.055815 0.055369 0.054930 0.054497 0.053878 0.053084 0.052313 0.051564 0.051602 0.052432 0.053288 0.054173 0.054564 0.054439 0.054314 0.054190 0.054025 0.053820 0.053617 0.053415 0.053332 0.053369 0.053405 0.053441 0.053586 0.053839 0.054096 0.054354 0.054576 0.054760 0.054945 0.055132 0.054640 0.053505 0.052416 0.051371 0.050709 0.050402 0.050099 0.049799 0.049745 0.049935 0.050126 0.050319 0.050433 0.050468 0.050502 0.050536 0.050248 0.049648 0.049062 0.048489 0.048181 0.048125 0.048071 0.048016 0.047988 0.047988 0.047987 0.047987 0.047940 0.047847 0.047755 0.047663 0.047466 0.047166
0.125746 0.123406 0.122685 0.121972 0.121267 0.119795 0.117611 0.115505 0.113474 0.111643 0.109996 0.108398 0.106845 0.104328 0.100981 0.097843 0.094894 0.093830 0.094526 0.095233 0.095950 0.095995 0.095364 0.094742 0.094128 0.093427 0.092643 0.091872 0.091114 0.090635 0.090426 0.090219 0.090012 0.089591 0.088962 0.088341 0.087729 0.087632 0.088044 0.088461 0.088882 0.088026 0.085966 0.084000 0.082122 0.080613 0.079436 0.078294 0.077183 0.077283 0.078601 0.079965 0.081377 0.081943 0.081627 0.081313 0.081001 0.080751 0.080559 0.080369 0.080180 0.080075 0.080055 0.080035 0.080015 0.080219 0.080651 0.081087 0.081528 0.081724 0.081673 0.081622 0.081571 0.081163 0.080409 0.079668 0.078941 0.077749 0.076136 0.074588 0.073102 0.072630 0.073133 0.073643 0.074160 0.074283 0.074008 0.073735 0.073463 0.073001 0.072356 0.071722 0.071099 0.070752 0.070673 0.070594 0.070515 0.070624 0.070922 0.071223 0.071527 0.071583 0.071389 0.071197 0.071006 0.070580 0.069927 0.069285 0.068656 0.067803 0.066743 0.065717 0.064721 0.064701 0.065653 0.066635 0.067646 0.068108 0.067998 0.067889 0.067780 0.067441 0.066879 0.066326 0.065782 0.065498 0.065467 0.065436 0.065405 0.065511 0.065753 0.065997 0.066243 0.066339 0.066282 0.066226 0.066169 0.065574 0.064469 0.063400 0.062366 0.061308 0.060230 0.059190 0.058184 0.057866 0.058212 0.058563 0.058918 0.059010 0.058838 0.058666 0.058496 0.058370 0.058290 0.058210 0.058130 0.058010 0.057850 0.057692 0.057534 0.057504 0.057603 0.057702 0.057801 0.057957 0.058172 0.058389 0.058607 0.058417 0.057828 0.057250 0.056684 0.056178 0.055730 0.055288 0.054854 0.054876 0.055356 0.055844 0.056341 0.056562 0.056502 0.056441 0.056381 0.056309 0.056227 0.056145 0.056063 0.055844 0.055491 0.055142 0.054798 0.054737 0.054957 0.055180 0.055403 0.055666 0.055969 0.056276 0.056585 0.056391 0.055704 0.055033 0.054378 0.053924 0.053661 0.053401 0.053143 0.053158 0.053447 0.053739 0.054034 0.054347 0.054676 0.055010 0.055348 0.055345 0.055002 0.054663 0.054328 0.054184 0.054228 0.054272 0.054316 0.054412 0.054560 0.054709 0.054859 0.055118 0.055491 0.055868 0.056251 0.056209 0.055746 0.055291 0.054842 0.054304 0.053681 0.053073 0.052478 0.052498 0.053135 0.053787 0.054456 0.055014 0.055454 0.055901 0.056355 0.056548 0.056475 0.056402 0.056329 0.056171 0.055928 0.055687 0.055449 0.055471 0.055755 0.056042 0.056331 0.056513 0.056585 0.056656 0.056729 0.056557 0.056147 0.055742 0.055343 0.054725 0.053902 0.053104 0.052329 0.052324 0.053089 0.053876 0.054688 0.055061 0.054978 0.054894 0.054812 0.054679 0.054496 0.054315 0.054134 0.054069 0.054117 0.054165 0.054214 0.054361 0.054607 0.054856 0.055107 0.055282 0.055379 0.055477 0.055575 0.055041 0.053911 0.052826 0.051784 0.051155 0.050910 0.050667 0.050426 0.050361 0.050470 0.050579 0.050688 0.050762 0.050799 0.050837 0.050875 0.050622 0.050088 0.049564 0.049052 0.048775 0.048727 0.048678 0.048629 0.048597 0.048581 0.048565 0.048549 0.048468 0.048324 0.048180 0.048037 0.047840 0.047590
0.128315 0.125550 0.123954 0.122399 0.120883 0.118941 0.116616 0.114381 0.112229 0.110929 0.110422 0.109920 0.109423 0.107383 0.103969 0.100765 0.097752 0.096398 0.096569 0.096741 0.096913 0.096701 0.096111 0.095527 0.094951 0.094334 0.093678 0.093032 0.092395 0.091894 0.091526 0.091161 0.090799 0.090466 0.090161 0.089858 0.089557 0.089279 0.089024 0.088770 0.088518 0.087723 0.086413 0.085142 0.083908 0.082732 0.081611 0.080520 0.079457 0.079300 0.080036 0.080786 0.081551 0.081803 0.081533 0.081264 0.080998 0.080892 0.080944 0.080997 0.081049 0.080977 0.080781 0.080586 0.080392 0.080537 0.081026 0.081521 0.082022 0.082107 0.081773 0.081441 0.081112 0.080781 0.080450 0.080122 0.079796 0.078843 0.077305 0.075827 0.074404 0.073790 0.073945 0.074101 0.074258 0.074215 0.073973 0.073732 0.073493 0.073239 0.072971 0.072706 0.072442 0.072171 0.071893 0.071617 0.071343 0.071323 0.071557 0.071791 0.072028 0.071951 0.071562 0.071177 0.070796 0.070478 0.070221 0.069965 0.069712 0.069075 0.068077 0.067107 0.066164 0.065916 0.066348 0.066786 0.067229 0.067509 0.067620 0.067733 0.067845 0.067775 0.067524 0.067275 0.067028 0.066787 0.066551 0.066317 0.066085 0.066087 0.066321 0.066558 0.066796 0.066771 0.066485 0.066200 0.065918 0.065434 0.064757 0.064094 0.063444 0.062542 0.061411 0.060319 0.059266 0.058795 0.058879 0.058963 0.059047 0.059029 0.058908 0.058788 0.058668 0.058665 0.058779 0.058893 0.059008 0.058933 0.058668 0.058406 0.058147 0.058024 0.058037 0.058049 0.058062 0.058096 0.058152 0.058207 0.058263 0.058177 0.057951 0.057726 0.057503 0.057090 0.056495 0.055913 0.055342 0.055259 0.055657 0.056062 0.056472 0.056704 0.056754 0.056804 0.056854 0.056876 0.056870 0.056864 0.056857 0.056675 0.056320 0.055969 0.055622 0.055514 0.055642 0.055770 0.055898 0.056034 0.056178 0.056322 0.056467 0.056402 0.056129 0.055858 0.055590 0.055237 0.054803 0.054375 0.053953 0.053851 0.054065 0.054281 0.054498 0.054762 0.055075 0.055391 0.055711 0.055777 0.055586 0.055397 0.055208 0.055095 0.055055 0.055015 0.054975 0.054996 0.055078 0.055160 0.055243 0.055394 0.055614 0.055835 0.056058 0.056117 0.056010 0.055904 0.055798 0.055384 0.054676 0.053986 0.053314 0.053208 0.053662 0.054124 0.054594 0.055090 0.055613 0.056145 0.056688 0.056914 0.056815 0.056716 0.056617 0.056489 0.056332 0.056175 0.056019 0.056080 0.056359 0.056641 0.056926 0.057056 0.057030 0.057004 0.056977 0.056898 0.056766 0.056635 0.056505 0.055991 0.055116 0.054267 0.053444 0.053264 0.053714 0.054172 0.054637 0.054877 0.054886 0.054894 0.054903 0.054923 0.054956 0.054989 0.055022 0.055032 0.055018 0.055005 0.054992 0.055040 0.055149 0.055259 0.055369 0.055368 0.055255 0.055143 0.055032 0.054586 0.053821 0.053077 0.052353 0.051898 0.051696 0.051496 0.051298 0.051172 0.051118 0.051064 0.051011 0.050977 0.050964 0.050951 0.050938 0.050784 0.050492 0.050203 0.049917 0.049745 0.049684 0.049624 0.049563 0.049459 0.049311 0.049163 0.049017 0.048838 0.048627 0.048417 0.048209 0.048063 0.047976
0.130991 0.127768 0.125251 0.122830 0.120501 0.118100 0.115639 0.113278 0.111012 0.110224 0.110852 0.111487 0.112129 0.110624 0.107139 0.103866 0.100788 0.099111 0.098702 0.098297 0.097895 0.097418 0.096869 0.096325 0.095788 0.095259 0.094738 0.094222 0.093712 0.093189 0.092653 0.092123 0.091599 0.091357 0.091392 0.091427 0.091462 0.090989 0.090025 0.089081 0.088157 0.087421 0.086865 0.086316 0.085773 0.084966 0.083908 0.082876 0.081870 0.081425 0.081525 0.081625 0.081725 0.081663 0.081439 0.081216 0.080995 0.081033 0.081333 0.081634 0.081938 0.081900 0.081520 0.081144 0.080771 0.080857 0.081405 0.081960 0.082523 0.082493 0.081872 0.081260 0.080657 0.080403 0.080492 0.080581 0.080671 0.079967 0.078511 0.077107 0.075752 0.074987 0.074775 0.074565 0.074356 0.074147 0.073937 0.073729 0.073522 0.073478 0.073597 0.073716 0.073836 0.073648 0.073156 0.072670 0.072191 0.072036 0.072202 0.072369 0.072536 0.072322 0.071735 0.071156 0.070587 0.070376 0.070517 0.070659 0.070801 0.070397 0.069465 0.068557 0.067673 0.067178 0.067058 0.066937 0.066817 0.066920 0.067247 0.067577 0.067910 0.068113 0.068183 0.068253 0.068323 0.068128 0.067672 0.067223 0.066779 0.066673 0.066900 0.067128 0.067358 0.067210 0.066688 0.066175 0.065669 0.065295 0.065048 0.064802 0.064559 0.063826 0.062638 0.061493 0.060389 0.059754 0.059561 0.059368 0.059177 0.059048 0.058979 0.058910 0.058842 0.058963 0.059276 0.059593 0.059913 0.059885 0.059510 0.059139 0.058773 0.058554 0.058478 0.058402 0.058326 0.058236 0.058131 0.058027 0.057924 0.057940 0.058074 0.058210 0.058346 0.058032 0.057282 0.056552 0.055840 0.055647 0.055962 0.056281 0.056604 0.056847 0.057009 0.057172 0.057336 0.057455 0.057528 0.057601 0.057674 0.057531 0.057173 0.056821 0.056472 0.056314 0.056343 0.056373 0.056402 0.056407 0.056388 0.056369 0.056349 0.056413 0.056561 0.056709 0.056858 0.056616 0.055994 0.055385 0.054789 0.054563 0.054698 0.054833 0.054970 0.055184 0.055480 0.055778 0.056080 0.056215 0.056183 0.056150 0.056117 0.056036 0.055906 0.055778 0.055649 0.055592 0.055606 0.055619 0.055633 0.055672 0.055737 0.055802 0.055868 0.056025 0.056277 0.056530 0.056787 0.056507 0.055708 0.054932 0.054176 0.053937 0.054200 0.054465 0.054733 0.055166 0.055772 0.056392 0.057026 0.057285 0.057159 0.057033 0.056908 0.056811 0.056741 0.056671 0.056601 0.056703 0.056977 0.057254 0.057534 0.057611 0.057483 0.057355 0.057228 0.057243 0.057400 0.057558 0.057716 0.057318 0.056385 0.055482 0.054608 0.054239 0.054354 0.054470 0.054586 0.054694 0.054794 0.054894 0.054994 0.055170 0.055424 0.055680 0.055939 0.056029 0.055950 0.055871 0.055792 0.055736 0.055702 0.055667 0.055633 0.055453 0.055132 0.054814 0.054500 0.054138 0.053731 0.053330 0.052935 0.052662 0.052507 0.052353 0.052200 0.052010 0.051784 0.051559 0.051337 0.051195 0.051130 0.051066 0.051002 0.050948 0.050903 0.050858 0.050813 0.050754 0.050680 0.050607 0.050534 0.050351 0.050062 0.049777 0.049494 0.049213 0.048933 0.048657 0.048383 0.048288 0.048369
0.133780 0.130067 0.126574 0.123264 0.120123 0.117270 0.114677 0.112197 0.109821 0.109528 0.111284 0.113098 0.114972 0.114065 0.110507 0.107165 0.104018 0.101981 0.100932 0.099904 0.098897 0.098146 0.097639 0.097137 0.096640 0.096202 0.095821 0.095443 0.095067 0.094520 0.093808 0.093106 0.092414 0.092266 0.092657 0.093052 0.093449 0.092766 0.091049 0.089394 0.087799 0.087121 0.087321 0.087522 0.087724 0.087324 0.086338 0.085375 0.084433 0.083668 0.083070 0.082481 0.081900 0.081523 0.081345 0.081168 0.080991 0.081175 0.081725 0.082282 0.082846 0.082843 0.082273 0.081710 0.081155 0.081180 0.081788 0.082404 0.083030 0.082883 0.081972 0.081080 0.080208 0.080029 0.080534 0.081046 0.081564 0.081124 0.079755 0.078431 0.077151 0.076223 0.075624 0.075035 0.074454 0.074079 0.073902 0.073726 0.073552 0.073719 0.074234 0.074756 0.075285 0.075186 0.074463 0.073754 0.073059 0.072764 0.072859 0.072955 0.073052 0.072698 0.071908 0.071135 0.070379 0.070275 0.070816 0.071366 0.071925 0.071770 0.070910 0.070071 0.069252 0.068490 0.067783 0.067090 0.066411 0.066341 0.066877 0.067422 0.067976 0.068454 0.068854 0.069259 0.069668 0.069523 0.068832 0.068153 0.067488 0.067269 0.067488 0.067708 0.067929 0.067654 0.066893 0.066150 0.065422 0.065157 0.065341 0.065527 0.065714 0.065164 0.063915 0.062713 0.061555 0.060745 0.060259 0.059780 0.059308 0.059067 0.059050 0.059033 0.059017 0.059264 0.059782 0.060309 0.060846 0.060868 0.060375 0.059891 0.059413 0.059093 0.058925 0.058758 0.058592 0.058376 0.058111 0.057849 0.057589 0.057704 0.058198 0.058702 0.059214 0.059005 0.058091 0.057206 0.056346 0.056040 0.056270 0.056502 0.056736 0.056991 0.057267 0.057545 0.057826 0.058045 0.058201 0.058358 0.058515 0.058413 0.058054 0.057699 0.057348 0.057137 0.057063 0.056989 0.056915 0.056785 0.056599 0.056415 0.056232 0.056424 0.056999 0.057585 0.058184 0.058065 0.057237 0.056433 0.055650 0.055293 0.055345 0.055397 0.055449 0.055613 0.055890 0.056170 0.056453 0.056661 0.056792 0.056924 0.057057 0.057010 0.056785 0.056562 0.056340 0.056201 0.056144 0.056086 0.056029 0.055954 0.055862 0.055770 0.055678 0.055934 0.056546 0.057172 0.057811 0.057677 0.056780 0.055911 0.055068 0.054687 0.054748 0.054811 0.054873 0.055243 0.055933 0.056641 0.057367 0.057660 0.057506 0.057354 0.057202 0.057137 0.057156 0.057176 0.057196 0.057339 0.057609 0.057881 0.058155 0.058176 0.057942 0.057711 0.057481 0.057592 0.058048 0.058510 0.058981 0.058708 0.057714 0.056753 0.055824 0.055249 0.055009 0.054772 0.054536 0.054513 0.054703 0.054893 0.055086 0.055420 0.055900 0.056389 0.056887 0.057064 0.056914 0.056765 0.056617 0.056450 0.056265 0.056082 0.055899 0.055540 0.055009 0.054489 0.053978 0.053698 0.053642 0.053586 0.053530 0.053449 0.053344 0.053239 0.053134 0.052875 0.052467 0.052064 0.051668 0.051414 0.051297 0.051181 0.051066 0.051112 0.051320 0.051530 0.051742 0.051805 0.051717 0.051630 0.051543 0.051277 0.050837 0.050405 0.049981 0.049594 0.049244 0.048899 0.048558 0.048515 0.048768
0.135822 0.132017 0.128201 0.124600 0.121195 0.118200 0.115566 0.113047 0.110636 0.110395 0.112296 0.114264 0.116303 0.115782 0.112771 0.109912 0.107194 0.105070 0.103478 0.101934 0.100434 0.099507 0.099120 0.098736 0.098354 0.097802 0.097085 0.096378 0.095681 0.094985 0.094290 0.093605 0.092930 0.092809 0.093238 0.093671 0.094108 0.093407 0.091618 0.089897 0.088239 0.087588 0.087901 0.088216 0.088533 0.088309 0.087553 0.086809 0.086078 0.085225 0.084257 0.083311 0.082387 0.081911 0.081868 0.081826 0.081783 0.081991 0.082454 0.082921 0.083394 0.083367 0.082839 0.082318 0.081804 0.081782 0.082251 0.082725 0.083206 0.082960 0.082001 0.081064 0.080148 0.079986 0.080567 0.081157 0.081756 0.081510 0.080435 0.079388 0.078368 0.077419 0.076536 0.075673 0.074829 0.074357 0.074242 0.074127 0.074013 0.074194 0.074673 0.075158 0.075650 0.075583 0.074960 0.074347 0.073744 0.073416 0.073355 0.073295 0.073235 0.072829 0.072090 0.071365 0.070655 0.070596 0.071185 0.071784 0.072393 0.072380 0.071745 0.071121 0.070508 0.069675 0.068638 0.067632 0.066654 0.066483 0.067104 0.067737 0.068382 0.068893 0.069263 0.069637 0.070015 0.069927 0.069378 0.068837 0.068305 0.068071 0.068130 0.068190 0.068249 0.067896 0.067142 0.066404 0.065683 0.065464 0.065739 0.066015 0.066294 0.065869 0.064767 0.063702 0.062670 0.061810 0.061108 0.060421 0.059750 0.059451 0.059514 0.059577 0.059640 0.059884 0.060314 0.060751 0.061193 0.061215 0.060815 0.060419 0.060029 0.059709 0.059456 0.059206 0.058957 0.058693 0.058412 0.058135 0.057860 0.057975 0.058485 0.059004 0.059532 0.059425 0.058689 0.057972 0.057272 0.056939 0.056962 0.056984 0.057006 0.057180 0.057507 0.057838 0.058173 0.058417 0.058567 0.058718 0.058870 0.058847 0.058650 0.058455 0.058260 0.058013 0.057713 0.057417 0.057124 0.056925 0.056818 0.056711 0.056605 0.056840 0.057425 0.058021 0.058631 0.058580 0.057873 0.057183 0.056508 0.056119 0.056004 0.055888 0.055774 0.055871 0.056181 0.056495 0.056813 0.057041 0.057176 0.057312 0.057449 0.057449 0.057314 0.057180 0.057047 0.056871 0.056654 0.056438 0.056224 0.056109 0.056089 0.056070 0.056051 0.056308 0.056850 0.057403 0.057966 0.057942 0.057330 0.056731 0.056145 0.055736 0.055498 0.055262 0.055028 0.055295 0.056078 0.056883 0.057711 0.058015 0.057778 0.057542 0.057309 0.057333 0.057616 0.057902 0.058191 0.058340 0.058346 0.058351 0.058357 0.058326 0.058258 0.058190 0.058122 0.058273 0.058646 0.059023 0.059405 0.059218 0.058473 0.057745 0.057036 0.056394 0.055814 0.055246 0.054690 0.054563 0.054860 0.055161 0.055465 0.055839 0.056288 0.056743 0.057207 0.057434 0.057419 0.057404 0.057389 0.057190 0.056810 0.056436 0.056066 0.055643 0.055169 0.054703 0.054245 0.053968 0.053867 0.053766 0.053666 0.053669 0.053775 0.053882 0.053989 0.053706 0.053047 0.052403 0.051775 0.051446 0.051407 0.051367 0.051327 0.051388 0.051550 0.051713 0.051877 0.052009 0.052110 0.052211 0.052313 0.052025 0.051361 0.050713 0.050081 0.049660 0.049439 0.049221 0.049004 0.048964 0.049102
0.137040 0.133581 0.130153 0.126897 0.123799 0.120973 0.118392 0.115919 0.113547 0.112900 0.113919 0.114957 0.116014 0.115612 0.113780 0.112005 0.110285 0.108405 0.106383 0.104435 0.102557 0.101554 0.101377 0.101200 0.101023 0.100125 0.098543 0.097010 0.095524 0.094557 0.094079 0.093605 0.093137 0.092972 0.093108 0.093243 0.093380 0.092863 0.091715 0.090595 0.089503 0.088847 0.088609 0.088373 0.088138 0.087828 0.087445 0.087065 0.086688 0.086013 0.085053 0.084115 0.083196 0.082840 0.083032 0.083224 0.083418 0.083522 0.083537 0.083552 0.083567 0.083453 0.083211 0.082971 0.082731 0.082674 0.082797 0.082921 0.083046 0.082722 0.081960 0.081212 0.080478 0.080274 0.080591 0.080912 0.081234 0.081103 0.080522 0.079949 0.079384 0.078567 0.077514 0.076488 0.075489 0.074989 0.074967 0.074945 0.074924 0.074911 0.074907 0.074903 0.074899 0.074802 0.074612 0.074423 0.074235 0.073988 0.073683 0.073381 0.073081 0.072713 0.072279 0.071851 0.071427 0.071353 0.071626 0.071901 0.072179 0.072186 0.071923 0.071661 0.071402 0.070718 0.069634 0.068583 0.067563 0.067353 0.067939 0.068535 0.069141 0.069432 0.069399 0.069366 0.069332 0.069304 0.069281 0.069259 0.069236 0.069092 0.068830 0.068569 0.068310 0.067931 0.067435 0.066946 0.066464 0.066232 0.066244 0.066256 0.066269 0.065899 0.065159 0.064435 0.063728 0.062954 0.062120 0.061307 0.060516 0.060214 0.060389 0.060564 0.060740 0.060843 0.060874 0.060905 0.060936 0.060904 0.060808 0.060714 0.060619 0.060405 0.060075 0.059749 0.059426 0.059192 0.059046 0.058901 0.058756 0.058768 0.058938 0.059110 0.059282 0.059266 0.059062 0.058859 0.058658 0.058392 0.058064 0.057739 0.057418 0.057415 0.057730 0.058049 0.058371 0.058560 0.058613 0.058667 0.058720 0.058813 0.058945 0.059078 0.059211 0.058945 0.058290 0.057649 0.057023 0.056823 0.057043 0.057265 0.057488 0.057679 0.057837 0.057996 0.058156 0.058110 0.057858 0.057609 0.057361 0.057049 0.056673 0.056303 0.055937 0.055952 0.056349 0.056752 0.057160 0.057353 0.057325 0.057297 0.057269 0.057328 0.057474 0.057621 0.057768 0.057604 0.057134 0.056671 0.056216 0.056134 0.056423 0.056714 0.057008 0.057168 0.057191 0.057214 0.057238 0.057275 0.057326 0.057376 0.057427 0.057119 0.056465 0.055825 0.055200 0.055323 0.056206 0.057118 0.058060 0.058351 0.057970 0.057595 0.057225 0.057397 0.058123 0.058867 0.059630 0.059743 0.059196 0.058659 0.058132 0.058055 0.058425 0.058799 0.059178 0.059309 0.059190 0.059072 0.058953 0.058800 0.058613 0.058427 0.058242 0.057686 0.056780 0.055903 0.055052 0.054846 0.055272 0.055704 0.056143 0.056437 0.056583 0.056729 0.056876 0.057112 0.057439 0.057770 0.058104 0.057957 0.057335 0.056727 0.056131 0.055764 0.055617 0.055470 0.055324 0.054970 0.054414 0.053870 0.053337 0.053308 0.053781 0.054264 0.054754 0.054499 0.053517 0.052569 0.051655 0.051292 0.051457 0.051624 0.051792 0.051779 0.051586 0.051394 0.051204 0.051347 0.051829 0.052320 0.052821 0.052580 0.051616 0.050687 0.049791 0.049408 0.049517 0.049626 0.049735 0.049648 0.049367
0.138281 0.135183 0.132166 0.129280 0.126517 0.123880 0.121361 0.118941 0.116616 0.115522 0.115590 0.115658 0.115727 0.115441 0.114807 0.114180 0.113560 0.111958 0.109455 0.107062 0.104771 0.103687 0.103739 0.103790 0.103841 0.102561 0.100045 0.097650 0.095367 0.094132 0.093868 0.093606 0.093345 0.093136 0.092978 0.092820 0.092663 0.092326 0.091812 0.091305 0.090803 0.090142 0.089328 0.088530 0.087745 0.087351 0.087337 0.087322 0.087308 0.086817 0.085865 0.084933 0.084022 0.083791 0.084229 0.084672 0.085119 0.085112 0.084650 0.084193 0.083741 0.083540 0.083587 0.083633 0.083680 0.083586 0.083351 0.083118 0.082886 0.082485 0.081919 0.081361 0.080810 0.080563 0.080616 0.080668 0.080720 0.080700 0.080609 0.080518 0.080427 0.079750 0.078517 0.077321 0.076161 0.075631 0.075706 0.075782 0.075857 0.075643 0.075143 0.074650 0.074163 0.074037 0.074267 0.074499 0.074732 0.074569 0.074014 0.073467 0.072928 0.072598 0.072470 0.072342 0.072215 0.072125 0.072072 0.072019 0.071966 0.071994 0.072102 0.072210 0.072318 0.071792 0.070659 0.069561 0.068496 0.068247 0.068795 0.069352 0.069918 0.069980 0.069536 0.069097 0.068663 0.068692 0.069185 0.069685 0.070193 0.070145 0.069543 0.068952 0.068371 0.067966 0.067730 0.067496 0.067264 0.067017 0.066757 0.066499 0.066243 0.065928 0.065555 0.065186 0.064821 0.064141 0.063166 0.062220 0.061302 0.060998 0.061290 0.061584 0.061881 0.061834 0.061445 0.061060 0.060680 0.060595 0.060802 0.061011 0.061220 0.061118 0.060707 0.060302 0.059902 0.059700 0.059693 0.059686 0.059680 0.059584 0.059399 0.059216 0.059034 0.059108 0.059439 0.059774 0.060112 0.059921 0.059210 0.058515 0.057836 0.057653 0.057955 0.058261 0.058570 0.058704 0.058660 0.058616 0.058572 0.058779 0.059243 0.059715 0.060194 0.059908 0.058878 0.057883 0.056922 0.056723 0.057270 0.057829 0.058399 0.058543 0.058255 0.057971 0.057689 0.057647 0.057843 0.058041 0.058241 0.058010 0.057359 0.056723 0.056101 0.056034 0.056518 0.057011 0.057512 0.057668 0.057475 0.057282 0.057091 0.057207 0.057634 0.058068 0.058508 0.058356 0.057622 0.056906 0.056208 0.056160 0.056760 0.057372 0.057998 0.058054 0.057536 0.057027 0.056528 0.056624 0.057321 0.058036 0.058770 0.058573 0.057466 0.056400 0.055372 0.055352 0.056336 0.057355 0.058413 0.058690 0.058164 0.057648 0.057141 0.057461 0.058638 0.059864 0.061142 0.061214 0.060071 0.058970 0.057909 0.057787 0.058592 0.059421 0.060272 0.060383 0.059745 0.059120 0.058508 0.058388 0.058754 0.059124 0.059499 0.059039 0.057780 0.056575 0.055418 0.055132 0.055689 0.056257 0.056837 0.057048 0.056881 0.056715 0.056549 0.056794 0.057459 0.058140 0.058838 0.058745 0.057870 0.057021 0.056196 0.055885 0.056071 0.056259 0.056448 0.056010 0.054973 0.053975 0.053011 0.052951 0.053788 0.054651 0.055542 0.055315 0.053995 0.052736 0.051535 0.051138 0.051508 0.051884 0.052265 0.052176 0.051622 0.051080 0.050549 0.050702 0.051551 0.052430 0.053339 0.053146 0.051874 0.050661 0.049503 0.049159 0.049594 0.050037 0.050488 0.050351 0.049636
0.139545 0.136824 0.134241 0.131754 0.129358 0.126931 0.124481 0.122125 0.119856 0.118268 0.117311 0.116368 0.115441 0.115271 0.115853 0.116441 0.117035 0.115751 0.112710 0.109824 0.107083 0.105912 0.106213 0.106516 0.106820 0.105118 0.101594 0.098299 0.095211 0.093712 0.093659 0.093606 0.093554 0.093300 0.092848 0.092400 0.091957 0.091795 0.091910 0.092025 0.092141 0.091475 0.090060 0.088688 0.087357 0.086880 0.087229 0.087581 0.087936 0.087635 0.086692 0.085768 0.084864 0.084764 0.085461 0.086170 0.086891 0.086763 0.085792 0.084844 0.083915 0.083627 0.083966 0.084307 0.084651 0.084518 0.083913 0.083316 0.082728 0.082250 0.081878 0.081510 0.081145 0.080855 0.080640 0.080425 0.080212 0.080302 0.080696 0.081095 0.081498 0.080969 0.079546 0.078172 0.076845 0.076285 0.076461 0.076637 0.076814 0.076388 0.075380 0.074398 0.073442 0.073288 0.073926 0.074576 0.075237 0.075159 0.074347 0.073553 0.072776 0.072482 0.072661 0.072841 0.073022 0.072915 0.072524 0.072138 0.071755 0.071802 0.072281 0.072767 0.073259 0.072900 0.071714 0.070567 0.069456 0.069164 0.069673 0.070189 0.070712 0.070537 0.069673 0.068830 0.068007 0.068091 0.069089 0.070117 0.071176 0.071229 0.070272 0.069340 0.068432 0.068001 0.068028 0.068056 0.068083 0.067822 0.067278 0.066744 0.066218 0.065957 0.065955 0.065954 0.065953 0.065374 0.064248 0.063161 0.062109 0.061802 0.062218 0.062639 0.063066 0.062857 0.062026 0.061216 0.060427 0.060290 0.060796 0.061310 0.061834 0.061848 0.061353 0.060865 0.060386 0.060217 0.060355 0.060494 0.060633 0.060422 0.059867 0.059323 0.058788 0.058950 0.059821 0.060717 0.061641 0.061532 0.060401 0.059311 0.058260 0.057892 0.058182 0.058475 0.058771 0.058849 0.058706 0.058565 0.058424 0.058745 0.059544 0.060366 0.061210 0.060903 0.059479 0.058119 0.056821 0.056622 0.057499 0.058405 0.059339 0.059433 0.058680 0.057946 0.057229 0.057191 0.057829 0.058481 0.059147 0.059004 0.058062 0.057150 0.056266 0.056116 0.056688 0.057272 0.057868 0.057987 0.057625 0.057267 0.056914 0.057087 0.057795 0.058522 0.059267 0.059129 0.058119 0.057143 0.056200 0.056186 0.057101 0.058046 0.059023 0.058968 0.057885 0.056841 0.055835 0.055987 0.057317 0.058712 0.060176 0.060103 0.058503 0.056986 0.055546 0.055380 0.056466 0.057595 0.058770 0.059033 0.058359 0.057701 0.057058 0.057526 0.059163 0.060895 0.062733 0.062760 0.060973 0.059285 0.057688 0.057521 0.058761 0.060055 0.061408 0.061497 0.060310 0.059169 0.058070 0.057982 0.058896 0.059839 0.060812 0.060457 0.058817 0.057263 0.055790 0.055421 0.056113 0.056822 0.057550 0.057672 0.057182 0.056700 0.056226 0.056479 0.057479 0.058516 0.059590 0.059555 0.058415 0.057318 0.056261 0.056007 0.056534 0.057071 0.057618 0.057090 0.055544 0.054079 0.052690 0.052599 0.053794 0.055044 0.056353 0.056155 0.054481 0.052905 0.051416 0.050985 0.051559 0.052146 0.052746 0.052579 0.051658 0.050769 0.049910 0.050072 0.051276 0.052540 0.053867 0.053724 0.052134 0.050635 0.049220 0.048912 0.049672 0.050456 0.051265 0.051074 0.049907
0.141271 0.138563 0.136237 0.133989 0.131813 0.129413 0.126816 0.124321 0.121922 0.120023 0.118580 0.117171 0.115795 0.115615 0.116619 0.117640 0.118679 0.117621 0.114575 0.111682 0.108932 0.107595 0.107571 0.107548 0.107524 0.105698 0.102247 0.099014 0.095980 0.094453 0.094298 0.094143 0.093989 0.093700 0.093279 0.092862 0.092449 0.092349 0.092562 0.092776 0.092990 0.092222 0.090517 0.088874 0.087290 0.086762 0.087254 0.087750 0.088253 0.088115 0.087343 0.086585 0.085840 0.085732 0.086256 0.086786 0.087323 0.087075 0.086057 0.085062 0.084089 0.083824 0.084253 0.084687 0.085125 0.084975 0.084242 0.083522 0.082814 0.082371 0.082184 0.081998 0.081813 0.081483 0.081011 0.080544 0.080082 0.080120 0.080658 0.081204 0.081757 0.081372 0.080076 0.078821 0.077604 0.077008 0.077003 0.076999 0.076994 0.076446 0.075376 0.074336 0.073324 0.073204 0.073966 0.074745 0.075541 0.075555 0.074786 0.074034 0.073296 0.073065 0.073331 0.073599 0.073869 0.073702 0.073104 0.072515 0.071936 0.071936 0.072515 0.073103 0.073701 0.073486 0.072473 0.071487 0.070528 0.070213 0.070526 0.070842 0.071161 0.070848 0.069919 0.069014 0.068132 0.068245 0.069363 0.070517 0.071711 0.071808 0.070800 0.069820 0.068867 0.068475 0.068627 0.068780 0.068933 0.068645 0.067928 0.067225 0.066537 0.066252 0.066360 0.066468 0.066576 0.066111 0.065097 0.064113 0.063158 0.062815 0.063064 0.063314 0.063567 0.063250 0.062379 0.061533 0.060708 0.060597 0.061191 0.061796 0.062413 0.062493 0.062033 0.061579 0.061131 0.061006 0.061198 0.061392 0.061587 0.061297 0.060537 0.059795 0.059071 0.059210 0.060225 0.061275 0.062362 0.062344 0.061224 0.060143 0.059099 0.058629 0.058704 0.058779 0.058855 0.058849 0.058762 0.058675 0.058588 0.058947 0.059770 0.060615 0.061485 0.061235 0.059890 0.058604 0.057371 0.057176 0.057998 0.058843 0.059713 0.059735 0.058908 0.058102 0.057319 0.057287 0.058003 0.058738 0.059492 0.059437 0.058578 0.057744 0.056933 0.056754 0.057193 0.057639 0.058092 0.058170 0.057871 0.057574 0.057280 0.057486 0.058202 0.058936 0.059689 0.059613 0.058714 0.057843 0.056996 0.057012 0.057891 0.058798 0.059733 0.059595 0.058398 0.057249 0.056143 0.056272 0.057651 0.059100 0.060624 0.060634 0.059127 0.057694 0.056329 0.056141 0.057107 0.058107 0.059143 0.059362 0.058746 0.058144 0.057553 0.058047 0.059684 0.061415 0.063250 0.063301 0.061560 0.059913 0.058351 0.058202 0.059443 0.060739 0.062092 0.062137 0.060867 0.059649 0.058478 0.058340 0.059220 0.060126 0.061061 0.060754 0.059242 0.057803 0.056433 0.056081 0.056711 0.057355 0.058014 0.058085 0.057564 0.057052 0.056549 0.056786 0.057782 0.058813 0.059882 0.059868 0.058774 0.057719 0.056702 0.056478 0.057029 0.057592 0.058165 0.057611 0.055992 0.054461 0.053012 0.052880 0.054045 0.055262 0.056535 0.056382 0.054824 0.053351 0.051954 0.051565 0.052139 0.052726 0.053326 0.053147 0.052203 0.051291 0.050411 0.050523 0.051639 0.052805 0.054025 0.053873 0.052373 0.050953 0.049609 0.049324 0.050063 0.050824 0.051609 0.051366 0.050122
0.143493 0.140405 0.138144 0.135954 0.133833 0.131252 0.128267 0.125414 0.122685 0.120691 0.119367 0.118071 0.116802 0.116481 0.117091 0.117708 0.118332 0.117372 0.114903 0.112536 0.110265 0.108679 0.107724 0.106785 0.105862 0.104235 0.101969 0.099799 0.097720 0.096413 0.095821 0.095235 0.094656 0.094342 0.094287 0.094232 0.094177 0.094031 0.093793 0.093557 0.093322 0.092352 0.090692 0.089090 0.087544 0.086997 0.087411 0.087829 0.088251 0.088245 0.087812 0.087382 0.086957 0.086693 0.086586 0.086480 0.086374 0.086021 0.085427 0.084841 0.084263 0.084133 0.084448 0.084766 0.085086 0.084940 0.084334 0.083737 0.083148 0.082853 0.082846 0.082839 0.082832 0.082462 0.081737 0.081026 0.080326 0.080151 0.080495 0.080840 0.081189 0.080934 0.080087 0.079256 0.078443 0.077802 0.077324 0.076853 0.076387 0.075811 0.075130 0.074461 0.073804 0.073781 0.074390 0.075010 0.075640 0.075749 0.075334 0.074924 0.074518 0.074379 0.074506 0.074632 0.074759 0.074485 0.073817 0.073161 0.072516 0.072399 0.072803 0.073212 0.073626 0.073525 0.072914 0.072313 0.071722 0.071404 0.071353 0.071302 0.071251 0.070906 0.070276 0.069657 0.069049 0.069165 0.070014 0.070884 0.071776 0.071856 0.071119 0.070397 0.069689 0.069408 0.069543 0.069678 0.069814 0.069488 0.068713 0.067954 0.067212 0.066821 0.066768 0.066715 0.066662 0.066318 0.065691 0.065076 0.064472 0.064056 0.063820 0.063585 0.063352 0.062988 0.062497 0.062015 0.061539 0.061535 0.062001 0.062475 0.062956 0.063049 0.062749 0.062452 0.062158 0.062086 0.062237 0.062388 0.062540 0.062212 0.061421 0.060650 0.059898 0.059898 0.060652 0.061424 0.062216 0.062292 0.061645 0.061011 0.060390 0.059901 0.059537 0.059177 0.058822 0.058706 0.058827 0.058948 0.059070 0.059391 0.059917 0.060453 0.060999 0.060880 0.060104 0.059348 0.058611 0.058424 0.058779 0.059137 0.059500 0.059432 0.058934 0.058444 0.057963 0.057939 0.058371 0.058809 0.059255 0.059285 0.058898 0.058516 0.058140 0.057986 0.058051 0.058117 0.058182 0.058215 0.058214 0.058212 0.058211 0.058427 0.058864 0.059308 0.059758 0.059794 0.059414 0.059038 0.058668 0.058710 0.059167 0.059632 0.060104 0.059917 0.059085 0.058275 0.057487 0.057507 0.058336 0.059190 0.060069 0.060111 0.059311 0.058532 0.057774 0.057697 0.058296 0.058907 0.059532 0.059676 0.059333 0.058994 0.058659 0.059051 0.060201 0.061396 0.062639 0.062784 0.061815 0.060875 0.059964 0.059899 0.060676 0.061474 0.062293 0.062273 0.061415 0.060582 0.059770 0.059492 0.059732 0.059974 0.060218 0.059897 0.059029 0.058186 0.057366 0.057141 0.057496 0.057855 0.058219 0.058278 0.058030 0.057784 0.057541 0.057735 0.058375 0.059030 0.059699 0.059669 0.058940 0.058229 0.057535 0.057315 0.057560 0.057806 0.058054 0.057543 0.056312 0.055132 0.054001 0.053813 0.054547 0.055301 0.056077 0.055979 0.055018 0.054089 0.053191 0.052930 0.053285 0.053646 0.054011 0.053890 0.053288 0.052700 0.052124 0.052113 0.052665 0.053229 0.053805 0.053585 0.052589 0.051630 0.050704 0.050429 0.050782 0.051141 0.051504 0.051210 0.050280
0.145787 0.142297 0.140104 0.137979 0.135916 0.133144 0.129751 0.126526 0.123458 0.121368 0.120164 0.118984 0.117827 0.117360 0.117568 0.117777 0.117986 0.117123 0.115233 0.113404 0.111631 0.109786 0.107876 0.106032 0.104250 0.102812 0.101692 0.100597 0.099524 0.098456 0.097393 0.096352 0.095334 0.094994 0.095317 0.095643 0.095971 0.095774 0.095058 0.094352 0.093656 0.092483 0.090867 0.089307 0.087800 0.087232 0.087568 0.087907 0.088249 0.088375 0.088285 0.088195 0.088105 0.087676 0.086920 0.086176 0.085445 0.084991 0.084805 0.084621 0.084437 0.084444 0.084644 0.084845 0.085046 0.084906 0.084426 0.083953 0.083484 0.083341 0.083518 0.083697 0.083877 0.083464 0.082477 0.081514 0.080572 0.080183 0.080332 0.080480 0.080630 0.080501 0.080097 0.079697 0.079301 0.078613 0.077648 0.076707 0.075789 0.075187 0.074885 0.074587 0.074290 0.074367 0.074819 0.075276 0.075739 0.075945 0.075890 0.075836 0.075781 0.075742 0.075718 0.075695 0.075672 0.075284 0.074544 0.073817 0.073105 0.072867 0.073094 0.073322 0.073551 0.073565 0.073361 0.073159 0.072957 0.072637 0.072200 0.071768 0.071341 0.070965 0.070637 0.070312 0.069990 0.070111 0.070678 0.071255 0.071842 0.071904 0.071441 0.070983 0.070531 0.070365 0.070483 0.070601 0.070719 0.070352 0.069516 0.068699 0.067901 0.067399 0.067180 0.066963 0.066748 0.066525 0.066296 0.066068 0.065842 0.065347 0.064594 0.063858 0.063138 0.062728 0.062616 0.062504 0.062393 0.062502 0.062834 0.063170 0.063509 0.063614 0.063482 0.063350 0.063219 0.063206 0.063311 0.063417 0.063522 0.063155 0.062332 0.061530 0.060748 0.060603 0.061085 0.061574 0.062071 0.062239 0.062071 0.061905 0.061739 0.061230 0.060394 0.059581 0.058789 0.058563 0.058892 0.059224 0.059560 0.059841 0.060066 0.060292 0.060520 0.060530 0.060320 0.060112 0.059905 0.059728 0.059581 0.059435 0.059289 0.059131 0.058960 0.058790 0.058622 0.058606 0.058743 0.058881 0.059019 0.059133 0.059221 0.059310 0.059399 0.059273 0.058936 0.058603 0.058273 0.058259 0.058561 0.058865 0.059173 0.059399 0.059542 0.059685 0.059828 0.059977 0.060130 0.060285 0.060440 0.060512 0.060501 0.060490 0.060479 0.060243 0.059787 0.059338 0.058896 0.058797 0.059038 0.059280 0.059525 0.059597 0.059496 0.059395 0.059295 0.059341 0.059535 0.059730 0.059926 0.059994 0.059932 0.059870 0.059808 0.060090 0.060727 0.061376 0.062040 0.062275 0.062071 0.061869 0.061667 0.061698 0.061961 0.062227 0.062494 0.062409 0.061973 0.061544 0.061121 0.060690 0.060253 0.059823 0.059399 0.059065 0.058818 0.058573 0.058331 0.058241 0.058302 0.058363 0.058425 0.058472 0.058504 0.058536 0.058568 0.058716 0.058981 0.059248 0.059518 0.059471 0.059107 0.058748 0.058393 0.058178 0.058100 0.058021 0.057943 0.057475 0.056636 0.055820 0.055028 0.054779 0.055058 0.055340 0.055625 0.055582 0.055213 0.054848 0.054489 0.054368 0.054483 0.054598 0.054714 0.054654 0.054420 0.054188 0.053958 0.053807 0.053733 0.053660 0.053587 0.053301 0.052808 0.052324 0.051849 0.051584 0.051522 0.051461 0.051400 0.051055 0.050439
0.148156 0.144240 0.142121 0.140064 0.138065 0.135091 0.131269 0.127658 0.124240 0.122052 0.120972 0.119912 0.118869 0.118253 0.118049 0.117845 0.117642 0.116875 0.115565 0.114285 0.113032 0.110915 0.108029 0.105290 0.102687 0.101428 0.101417 0.101407 0.101397 0.100588 0.099018 0.097496 0.096021 0.095654 0.096370 0.097097 0.097835 0.097583 0.096357 0.095160 0.093993 0.092614 0.091043 0.089525 0.088056 0.087469 0.087726 0.087986 0.088247 0.088506 0.088763 0.089022 0.089282 0.088682 0.087256 0.085874 0.084536 0.083986 0.084193 0.084402 0.084611 0.084758 0.084841 0.084924 0.085007 0.084871 0.084519 0.084170 0.083823 0.083834 0.084202 0.084573 0.084948 0.084492 0.083231 0.082008 0.080820 0.080215 0.080169 0.080124 0.080078 0.080072 0.080107 0.080142 0.080177 0.079441 0.077975 0.076563 0.075201 0.074572 0.074643 0.074713 0.074783 0.074962 0.075252 0.075544 0.075839 0.076142 0.076455 0.076770 0.077087 0.077155 0.076971 0.076789 0.076607 0.076101 0.075285 0.074486 0.073704 0.073341 0.073386 0.073432 0.073477 0.073604 0.073813 0.074024 0.074236 0.073912 0.073066 0.072240 0.071432 0.071024 0.071002 0.070980 0.070957 0.071082 0.071355 0.071630 0.071907 0.071952 0.071765 0.071579 0.071393 0.071350 0.071449 0.071548 0.071647 0.071238 0.070338 0.069460 0.068604 0.067987 0.067598 0.067214 0.066834 0.066734 0.066913 0.067092 0.067272 0.066691 0.065387 0.064133 0.062926 0.062471 0.062735 0.063002 0.063271 0.063500 0.063689 0.063880 0.064071 0.064189 0.064232 0.064274 0.064317 0.064367 0.064423 0.064480 0.064536 0.064127 0.063270 0.062436 0.061623 0.061324 0.061524 0.061725 0.061927 0.062186 0.062504 0.062825 0.063150 0.062619 0.061276 0.059989 0.058755 0.058421 0.058957 0.059503 0.060058 0.060298 0.060215 0.060132 0.060049 0.060183 0.060537 0.060895 0.061258 0.061092 0.060406 0.059735 0.059079 0.058833 0.058987 0.059141 0.059296 0.059289 0.059120 0.058953 0.058786 0.058982 0.059548 0.060125 0.060713 0.060619 0.059848 0.059097 0.058364 0.058304 0.058912 0.059533 0.060167 0.060404 0.060235 0.060066 0.059898 0.060160 0.060864 0.061585 0.062322 0.062428 0.061896 0.061373 0.060859 0.060572 0.060507 0.060442 0.060377 0.060147 0.059756 0.059371 0.058990 0.059092 0.059682 0.060284 0.060898 0.061082 0.060828 0.060576 0.060325 0.060314 0.060542 0.060772 0.061003 0.061167 0.061262 0.061357 0.061452 0.061774 0.062330 0.062895 0.063471 0.063608 0.063302 0.062998 0.062697 0.062546 0.062542 0.062537 0.062533 0.061938 0.060784 0.059673 0.058601 0.058255 0.058608 0.058966 0.059328 0.059384 0.059131 0.058881 0.058632 0.058667 0.058985 0.059307 0.059632 0.059731 0.059599 0.059468 0.059338 0.059274 0.059275 0.059276 0.059278 0.059067 0.058650 0.058238 0.057833 0.057407 0.056963 0.056526 0.056095 0.055781 0.055580 0.055380 0.055181 0.055191 0.055409 0.055629 0.055851 0.055887 0.055735 0.055584 0.055434 0.055440 0.055601 0.055762 0.055925 0.055614 0.054846 0.054098 0.053371 0.053019 0.053028 0.053037 0.053046 0.052793 0.052284 0.051785 0.051295 0.050902 0.050599
0.150210 0.146158 0.144147 0.142191 0.140287 0.137209 0.133111 0.129250 0.125607 0.123312 0.122226 0.121160 0.120112 0.119306 0.118732 0.118164 0.117601 0.116832 0.115866 0.114915 0.113980 0.111949 0.108937 0.106082 0.103374 0.102208 0.102484 0.102761 0.103040 0.102190 0.100264 0.098410 0.096623 0.096175 0.097028 0.097897 0.098781 0.098590 0.097336 0.096114 0.094922 0.093454 0.091737 0.090082 0.088485 0.087817 0.088036 0.088256 0.088477 0.088794 0.089209 0.089629 0.090052 0.089527 0.088086 0.086690 0.085338 0.084785 0.085000 0.085217 0.085434 0.085484 0.085366 0.085247 0.085129 0.084990 0.084830 0.084670 0.084512 0.084574 0.084858 0.085145 0.085433 0.084894 0.083558 0.082264 0.081009 0.080328 0.080194 0.080060 0.079927 0.079966 0.080178 0.080392 0.080607 0.079992 0.078586 0.077227 0.075915 0.075343 0.075477 0.075611 0.075746 0.075870 0.075983 0.076096 0.076210 0.076508 0.076995 0.077488 0.077987 0.078121 0.077884 0.077650 0.077416 0.076805 0.075834 0.074887 0.073963 0.073504 0.073494 0.073483 0.073473 0.073668 0.074072 0.074480 0.074893 0.074659 0.073790 0.072941 0.072112 0.071727 0.071774 0.071820 0.071866 0.071917 0.071973 0.072029 0.072085 0.072116 0.072123 0.072130 0.072137 0.072159 0.072197 0.072235 0.072272 0.071812 0.070871 0.069955 0.069063 0.068404 0.067965 0.067532 0.067104 0.067025 0.067294 0.067564 0.067837 0.067322 0.066055 0.064835 0.063659 0.063237 0.063537 0.063841 0.064148 0.064324 0.064366 0.064409 0.064452 0.064581 0.064798 0.065017 0.065237 0.065331 0.065297 0.065264 0.065231 0.064773 0.063909 0.063068 0.062248 0.061887 0.061968 0.062049 0.062131 0.062405 0.062876 0.063355 0.063841 0.063410 0.062100 0.060842 0.059635 0.059269 0.059714 0.060166 0.060625 0.060767 0.060589 0.060412 0.060236 0.060404 0.060922 0.061449 0.061985 0.061848 0.061047 0.060267 0.059506 0.059174 0.059256 0.059338 0.059420 0.059388 0.059241 0.059094 0.058949 0.059192 0.059833 0.060488 0.061158 0.061150 0.060465 0.059795 0.059139 0.059098 0.059668 0.060249 0.060841 0.061023 0.060785 0.060550 0.060316 0.060634 0.061520 0.062432 0.063372 0.063504 0.062820 0.062150 0.061494 0.061147 0.061099 0.061051 0.061002 0.060708 0.060174 0.059649 0.059134 0.059258 0.060030 0.060823 0.061637 0.061937 0.061708 0.061481 0.061256 0.061250 0.061464 0.061680 0.061898 0.061936 0.061796 0.061656 0.061517 0.061877 0.062755 0.063658 0.064588 0.064800 0.064281 0.063769 0.063266 0.063034 0.063067 0.063100 0.063132 0.062471 0.061157 0.059897 0.058689 0.058381 0.058947 0.059524 0.060113 0.060289 0.060045 0.059803 0.059562 0.059578 0.059850 0.060124 0.060401 0.060391 0.060096 0.059803 0.059513 0.059501 0.059767 0.060035 0.060306 0.060133 0.059524 0.058926 0.058341 0.057834 0.057400 0.056974 0.056553 0.056174 0.055835 0.055500 0.055168 0.055227 0.055678 0.056136 0.056602 0.056753 0.056585 0.056417 0.056251 0.056257 0.056434 0.056613 0.056793 0.056372 0.055375 0.054414 0.053485 0.053136 0.053345 0.053556 0.053768 0.053528 0.052847 0.052184 0.051537 0.051093 0.050843
0.151920 0.148047 0.146181 0.144362 0.142587 0.139511 0.135300 0.131336 0.127598 0.125183 0.123954 0.122748 0.121565 0.120527 0.119625 0.118736 0.117861 0.116994 0.116134 0.115288 0.114453 0.112882 0.110637 0.108478 0.106403 0.105255 0.104978 0.104703 0.104429 0.103207 0.101101 0.099079 0.097136 0.096551 0.097274 0.098008 0.098753 0.098743 0.097976 0.097222 0.096478 0.095041 0.092972 0.090990 0.089091 0.088281 0.088500 0.088720 0.088941 0.089242 0.089622 0.090006 0.090393 0.090202 0.089439 0.088689 0.087951 0.087494 0.087310 0.087127 0.086944 0.086645 0.086231 0.085821 0.085415 0.085264 0.085364 0.085465 0.085566 0.085573 0.085486 0.085399 0.085312 0.084654 0.083449 0.082278 0.081139 0.080522 0.080405 0.080288 0.080172 0.080179 0.080311 0.080443 0.080576 0.080255 0.079493 0.078744 0.078010 0.077586 0.077462 0.077339 0.077216 0.077112 0.077029 0.076945 0.076862 0.077049 0.077510 0.077977 0.078450 0.078603 0.078432 0.078261 0.078092 0.077389 0.076181 0.075010 0.073875 0.073351 0.073414 0.073477 0.073540 0.073758 0.074133 0.074512 0.074895 0.074844 0.074362 0.073886 0.073416 0.073115 0.072980 0.072845 0.072711 0.072606 0.072529 0.072453 0.072376 0.072398 0.072516 0.072635 0.072755 0.072781 0.072713 0.072645 0.072577 0.072057 0.071103 0.070174 0.069269 0.068642 0.068278 0.067918 0.067562 0.067400 0.067431 0.067461 0.067492 0.067199 0.066590 0.065993 0.065406 0.065103 0.065077 0.065050 0.065023 0.064957 0.064853 0.064748 0.064644 0.064784 0.065171 0.065563 0.065960 0.066077 0.065912 0.065748 0.065584 0.065073 0.064230 0.063408 0.062607 0.062281 0.062417 0.062553 0.062690 0.062900 0.063185 0.063472 0.063762 0.063555 0.062858 0.062177 0.061511 0.061194 0.061217 0.061240 0.061263 0.061248 0.061197 0.061145 0.061093 0.061205 0.061481 0.061759 0.062040 0.061950 0.061492 0.061041 0.060596 0.060174 0.059774 0.059379 0.058989 0.058897 0.059102 0.059307 0.059514 0.059770 0.060076 0.060384 0.060696 0.060825 0.060768 0.060712 0.060656 0.060705 0.060860 0.061016 0.061173 0.061229 0.061185 0.061141 0.061097 0.061410 0.062091 0.062787 0.063499 0.063648 0.063226 0.062810 0.062399 0.061981 0.061554 0.061134 0.060720 0.060435 0.060278 0.060121 0.059965 0.060106 0.060546 0.060993 0.061446 0.061829 0.062138 0.062451 0.062766 0.062859 0.062727 0.062595 0.062464 0.062375 0.062329 0.062283 0.062237 0.062589 0.063354 0.064138 0.064942 0.065187 0.064862 0.064539 0.064220 0.063889 0.063546 0.063206 0.062870 0.062251 0.061366 0.060506 0.059669 0.059457 0.059854 0.060258 0.060666 0.060931 0.061049 0.061167 0.061286 0.061274 0.061132 0.060990 0.060849 0.060673 0.060464 0.060256 0.060050 0.060163 0.060600 0.061043 0.061493 0.061393 0.060749 0.060119 0.059502 0.058777 0.057953 0.057151 0.056372 0.055932 0.055816 0.055701 0.055586 0.055692 0.056021 0.056353 0.056690 0.056904 0.056993 0.057082 0.057171 0.057106 0.056888 0.056671 0.056456 0.055990 0.055287 0.054602 0.053933 0.053657 0.053762 0.053867 0.053973 0.053748 0.053198 0.052660 0.052133 0.051638 0.051173
0.153669 0.149985 0.148273 0.146599 0.144963 0.141891 0.137562 0.133490 0.129652 0.127113 0.125731 0.124378 0.123055 0.121773 0.120531 0.119315 0.118122 0.117156 0.116404 0.115662 0.114929 0.113832 0.112390 0.110985 0.109614 0.108490 0.107598 0.106720 0.105856 0.104244 0.101951 0.099757 0.097655 0.096930 0.097522 0.098120 0.098726 0.098895 0.098625 0.098355 0.098087 0.096684 0.094240 0.091917 0.089706 0.088749 0.088968 0.089189 0.089411 0.089694 0.090039 0.090386 0.090737 0.090886 0.090834 0.090781 0.090729 0.090383 0.089749 0.089124 0.088508 0.087837 0.087114 0.086403 0.085703 0.085539 0.085906 0.086275 0.086648 0.086597 0.086124 0.085655 0.085192 0.084414 0.083339 0.082291 0.081269 0.080718 0.080618 0.080518 0.080418 0.080394 0.080444 0.080494 0.080545 0.080520 0.080421 0.080322 0.080223 0.079967 0.079555 0.079147 0.078743 0.078396 0.078103 0.077813 0.077525 0.077597 0.078033 0.078473 0.078919 0.079091 0.078987 0.078883 0.078779 0.077981 0.076531 0.075134 0.073787 0.073199 0.073335 0.073471 0.073607 0.073848 0.074194 0.074544 0.074897 0.075031 0.074943 0.074855 0.074767 0.074557 0.074227 0.073900 0.073576 0.073308 0.073094 0.072882 0.072671 0.072681 0.072914 0.073147 0.073383 0.073412 0.073236 0.073060 0.072885 0.072304 0.071336 0.070394 0.069476 0.068882 0.068594 0.068309 0.068026 0.067780 0.067569 0.067359 0.067151 0.067076 0.067135 0.067193 0.067252 0.067084 0.066692 0.066305 0.065923 0.065604 0.065346 0.065091 0.064837 0.064988 0.065548 0.066119 0.066699 0.066841 0.066538 0.066239 0.065941 0.065375 0.064553 0.063752 0.062970 0.062681 0.062873 0.063065 0.063259 0.063403 0.063497 0.063590 0.063685 0.063700 0.063636 0.063572 0.063509 0.063249 0.062798 0.062353 0.061915 0.061737 0.061817 0.061896 0.061976 0.062027 0.062050 0.062073 0.062096 0.062053 0.061944 0.061836 0.061728 0.061210 0.060301 0.059420 0.058564 0.058415 0.058963 0.059522 0.060091 0.060360 0.060320 0.060280 0.060240 0.060503 0.061075 0.061657 0.062252 0.062402 0.062101 0.061803 0.061507 0.061437 0.061590 0.061744 0.061898 0.062207 0.062673 0.063146 0.063626 0.063792 0.063638 0.063484 0.063332 0.062837 0.062017 0.061218 0.060439 0.060165 0.060382 0.060601 0.060821 0.060978 0.061071 0.061163 0.061256 0.061721 0.062574 0.063451 0.064353 0.064555 0.064042 0.063537 0.063040 0.062820 0.062871 0.062922 0.062974 0.063318 0.063965 0.064625 0.065299 0.065579 0.065453 0.065328 0.065204 0.064768 0.064032 0.063313 0.062610 0.062034 0.061577 0.061127 0.060683 0.060572 0.060790 0.061009 0.061230 0.061588 0.062088 0.062596 0.063113 0.063070 0.062470 0.061881 0.061303 0.060958 0.060837 0.060716 0.060596 0.060840 0.061456 0.062085 0.062727 0.062707 0.062027 0.061361 0.060709 0.059751 0.058516 0.057330 0.056192 0.055692 0.055798 0.055904 0.056010 0.056165 0.056368 0.056572 0.056778 0.057055 0.057407 0.057762 0.058122 0.057981 0.057348 0.056728 0.056122 0.055614 0.055199 0.054791 0.054388 0.054188 0.054185 0.054183 0.054180 0.053969 0.053554 0.053146 0.052743 0.052194 0.051508
0.155459 0.151974 0.150425 0.148907 0.147420 0.144354 0.139902 0.135717 0.131775 0.129102 0.127559 0.126052 0.124581 0.123045 0.121452 0.119899 0.118385 0.117318 0.116675 0.116039 0.115410 0.114797 0.114201 0.113611 0.113026 0.111930 0.110351 0.108816 0.107323 0.105303 0.102816 0.100445 0.098180 0.097313 0.097770 0.098232 0.098698 0.099049 0.099282 0.099516 0.099750 0.098384 0.095544 0.092863 0.090328 0.089222 0.089442 0.089663 0.089886 0.090151 0.090459 0.090770 0.091083 0.091582 0.092273 0.092975 0.093688 0.093468 0.092328 0.091216 0.090130 0.089063 0.088016 0.086992 0.085993 0.085816 0.086454 0.087101 0.087757 0.087645 0.086770 0.085913 0.085072 0.084176 0.083230 0.082305 0.081400 0.080914 0.080831 0.080749 0.080667 0.080610 0.080578 0.080546 0.080514 0.080787 0.081371 0.081964 0.082566 0.082498 0.081764 0.081042 0.080333 0.079723 0.079209 0.078701 0.078199 0.078154 0.078562 0.078975 0.079393 0.079585 0.079550 0.079514 0.079479 0.078583 0.076885 0.075259 0.073700 0.073048 0.073256 0.073464 0.073674 0.073938 0.074255 0.074576 0.074899 0.075218 0.075533 0.075850 0.076170 0.076058 0.075518 0.074986 0.074462 0.074023 0.073668 0.073316 0.072967 0.072967 0.073315 0.073667 0.074022 0.074055 0.073767 0.073480 0.073196 0.072553 0.071571 0.070615 0.069685 0.069123 0.068913 0.068705 0.068497 0.068164 0.067707 0.067257 0.066813 0.066954 0.067688 0.068438 0.069205 0.069188 0.068390 0.067610 0.066848 0.066263 0.065848 0.065437 0.065032 0.065193 0.065930 0.066684 0.067455 0.067622 0.067177 0.066737 0.066303 0.065680 0.064880 0.064099 0.063337 0.063086 0.063335 0.063586 0.063839 0.063914 0.063811 0.063709 0.063607 0.063846 0.064433 0.065031 0.065641 0.065446 0.064462 0.063508 0.062581 0.062234 0.062449 0.062666 0.062884 0.062872 0.062630 0.062389 0.062151 0.062155 0.062402 0.062651 0.062902 0.062281 0.060838 0.059461 0.058144 0.057940 0.058825 0.059738 0.060679 0.060962 0.060566 0.060177 0.059792 0.060184 0.061384 0.062633 0.063934 0.064196 0.063393 0.062610 0.061846 0.061646 0.062001 0.062359 0.062721 0.063024 0.063266 0.063509 0.063755 0.063937 0.064055 0.064174 0.064293 0.063718 0.062487 0.061302 0.060162 0.059898 0.060487 0.061088 0.061702 0.061876 0.061604 0.061335 0.061068 0.061613 0.063016 0.064485 0.066023 0.066344 0.065413 0.064508 0.063627 0.063271 0.063423 0.063575 0.063728 0.064064 0.064587 0.065120 0.065661 0.065975 0.066056 0.066137 0.066218 0.065671 0.064526 0.063421 0.062352 0.061817 0.061789 0.061761 0.061732 0.061731 0.061755 0.061780 0.061804 0.062259 0.063163 0.064093 0.065052 0.064974 0.063868 0.062799 0.061765 0.061245 0.061214 0.061183 0.061152 0.061532 0.062337 0.063163 0.064011 0.064078 0.063359 0.062655 0.061967 0.060759 0.059090 0.057510 0.056013 0.055454 0.055779 0.056108 0.056441 0.056646 0.056719 0.056793 0.056867 0.057208 0.057826 0.058458 0.059104 0.058884 0.057816 0.056786 0.055792 0.055243 0.055112 0.054981 0.054852 0.054730 0.054616 0.054502 0.054388 0.054192 0.053915 0.053640 0.053368 0.052763 0.051847
0.159938 0.155961 0.153490 0.151096 0.148775 0.145264 0.140730 0.136472 0.132463 0.129731 0.128133 0.126573 0.125051 0.123653 0.122373 0.121120 0.119891 0.118849 0.117984 0.117131 0.116290 0.115561 0.114940 0.114325 0.113717 0.112861 0.111768 0.110696 0.109645 0.107661 0.104845 0.102172 0.099632 0.098498 0.098676 0.098854 0.099034 0.099151 0.099208 0.099264 0.099320 0.098061 0.095583 0.093228 0.090986 0.090068 0.090397 0.090729 0.091063 0.091313 0.091477 0.091642 0.091807 0.092270 0.093039 0.093821 0.094616 0.094596 0.093761 0.092941 0.092136 0.091049 0.089702 0.088394 0.087124 0.086718 0.087152 0.087590 0.088033 0.087696 0.086596 0.085524 0.084478 0.083627 0.082961 0.082305 0.081659 0.081344 0.081351 0.081359 0.081366 0.081313 0.081200 0.081088 0.080976 0.081234 0.081869 0.082515 0.083171 0.083288 0.082862 0.082439 0.082022 0.081404 0.080596 0.079805 0.079028 0.078763 0.078998 0.079235 0.079474 0.079557 0.079485 0.079413 0.079341 0.078492 0.076914 0.075398 0.073941 0.073423 0.073805 0.074190 0.074580 0.074855 0.075013 0.075171 0.075330 0.075567 0.075884 0.076203 0.076525 0.076543 0.076257 0.075973 0.075692 0.075281 0.074744 0.074215 0.073693 0.073525 0.073707 0.073890 0.074074 0.073989 0.073638 0.073290 0.072945 0.072372 0.071583 0.070811 0.070056 0.069638 0.069546 0.069455 0.069364 0.068997 0.068362 0.067739 0.067127 0.067246 0.068103 0.068983 0.069885 0.070001 0.069322 0.068657 0.068004 0.067413 0.066881 0.066358 0.065843 0.065898 0.066525 0.067164 0.067816 0.067889 0.067380 0.066879 0.066385 0.065789 0.065098 0.064420 0.063757 0.063618 0.063996 0.064378 0.064766 0.064785 0.064435 0.064089 0.063747 0.063953 0.064718 0.065502 0.066305 0.066248 0.065334 0.064444 0.063579 0.063219 0.063346 0.063474 0.063602 0.063428 0.062957 0.062492 0.062035 0.062022 0.062453 0.062890 0.063333 0.062778 0.061276 0.059844 0.058477 0.058312 0.059328 0.060379 0.061468 0.061745 0.061186 0.060637 0.060097 0.060490 0.061852 0.063278 0.064770 0.065153 0.064387 0.063638 0.062907 0.062723 0.063077 0.063435 0.063797 0.063962 0.063925 0.063889 0.063853 0.063975 0.064258 0.064543 0.064831 0.064325 0.063063 0.061849 0.060680 0.060514 0.061334 0.062176 0.063042 0.063206 0.062659 0.062121 0.061592 0.062065 0.063588 0.065187 0.066869 0.067325 0.066505 0.065704 0.064922 0.064589 0.064691 0.064794 0.064896 0.065071 0.065319 0.065568 0.065820 0.066070 0.066318 0.066568 0.066820 0.066303 0.065052 0.063848 0.062687 0.062222 0.062424 0.062627 0.062831 0.062870 0.062743 0.062617 0.062491 0.062908 0.063890 0.064904 0.065951 0.065952 0.064907 0.063895 0.062914 0.062374 0.062254 0.062134 0.062014 0.062273 0.062920 0.063580 0.064255 0.064295 0.063697 0.063111 0.062536 0.061388 0.059731 0.058160 0.056670 0.056191 0.056672 0.057161 0.057659 0.057863 0.057767 0.057671 0.057575 0.057812 0.058390 0.058979 0.059581 0.059350 0.058305 0.057296 0.056322 0.055820 0.055766 0.055712 0.055659 0.055475 0.055163 0.054854 0.054549 0.054327 0.054185 0.054045 0.053905 0.053376 0.052482
0.167586 0.162268 0.157577 0.153150 0.148966 0.144561 0.139993 0.135706 0.131673 0.128960 0.127417 0.125911 0.124440 0.123577 0.123296 0.123017 0.122739 0.121858 0.120401 0.118978 0.117589 0.116115 0.114566 0.113057 0.111587 0.111157 0.111743 0.112336 0.112934 0.111498 0.108177 0.105049 0.102096 0.100545 0.100275 0.100007 0.099739 0.099203 0.098406 0.097622 0.096850 0.095754 0.094356 0.092998 0.091679 0.091309 0.091865 0.092429 0.092999 0.093235 0.093133 0.093031 0.092929 0.092951 0.093097 0.093243 0.093391 0.093621 0.093937 0.094254 0.094574 0.093897 0.092265 0.090689 0.089166 0.088284 0.088007 0.087732 0.087459 0.086745 0.085611 0.084506 0.083430 0.082779 0.082534 0.082290 0.082048 0.082015 0.082189 0.082364 0.082540 0.082530 0.082335 0.082141 0.081948 0.081867 0.081898 0.081929 0.081961 0.082234 0.082756 0.083283 0.083818 0.083482 0.082296 0.081143 0.080022 0.079428 0.079338 0.079248 0.079159 0.079008 0.078796 0.078585 0.078375 0.077712 0.076617 0.075553 0.074518 0.074342 0.075011 0.075693 0.076387 0.076663 0.076510 0.076357 0.076206 0.076083 0.075990 0.075896 0.075803 0.075973 0.076410 0.076853 0.077300 0.077136 0.076367 0.075613 0.074874 0.074369 0.074090 0.073812 0.073537 0.073218 0.072856 0.072498 0.072144 0.071768 0.071373 0.070981 0.070594 0.070438 0.070511 0.070584 0.070657 0.070313 0.069564 0.068830 0.068112 0.067963 0.068376 0.068793 0.069216 0.069427 0.069422 0.069418 0.069413 0.069104 0.068499 0.067904 0.067319 0.067135 0.067345 0.067556 0.067769 0.067629 0.067141 0.066660 0.066186 0.065700 0.065204 0.064714 0.064233 0.064283 0.064868 0.065464 0.066071 0.066044 0.065386 0.064740 0.064107 0.064022 0.064478 0.064942 0.065412 0.065547 0.065344 0.065142 0.064942 0.064737 0.064529 0.064322 0.064116 0.063680 0.063023 0.062379 0.061749 0.061655 0.062093 0.062538 0.062989 0.062672 0.061610 0.060582 0.059589 0.059563 0.060503 0.061473 0.062474 0.062723 0.062200 0.061687 0.061181 0.061441 0.062487 0.063570 0.064690 0.065194 0.065051 0.064909 0.064768 0.064762 0.064891 0.065021 0.065152 0.065029 0.064655 0.064286 0.063921 0.063906 0.064242 0.064581 0.064924 0.064642 0.063750 0.062882 0.062038 0.062072 0.062987 0.063930 0.064901 0.065024 0.064288 0.063569 0.062865 0.063100 0.064295 0.065537 0.066827 0.067422 0.067285 0.067148 0.067011 0.066883 0.066762 0.066642 0.066523 0.066364 0.066166 0.065969 0.065774 0.065860 0.066232 0.066607 0.066986 0.066647 0.065611 0.064606 0.063632 0.063273 0.063508 0.063744 0.063982 0.063986 0.063754 0.063525 0.063296 0.063533 0.064246 0.064975 0.065720 0.065915 0.065549 0.065188 0.064830 0.064442 0.064025 0.063613 0.063207 0.063066 0.063188 0.063311 0.063433 0.063333 0.063010 0.062691 0.062376 0.061615 0.060442 0.059312 0.058224 0.057982 0.058566 0.059162 0.059770 0.059915 0.059590 0.059268 0.058950 0.058896 0.059105 0.059315 0.059527 0.059358 0.058816 0.058284 0.057761 0.057408 0.057217 0.057028 0.056840 0.056439 0.055834 0.055242 0.054662 0.054373 0.054364 0.054355 0.054347 0.054036 0.053434
0.176003 0.169105 0.161888 0.155262 0.149157 0.143864 0.139264 0.134948 0.130892 0.128197 0.126709 0.125256 0.123835 0.123500 0.124233 0.124974 0.125725 0.125024 0.122920 0.120885 0.118917 0.116675 0.114194 0.111816 0.109535 0.109504 0.111718 0.114024 0.116427 0.115618 0.111728 0.108092 0.104684 0.102680 0.101927 0.101186 0.100455 0.099254 0.097617 0.096033 0.094499 0.093553 0.093160 0.092770 0.092383 0.092584 0.093382 0.094193 0.095019 0.095241 0.094850 0.094462 0.094078 0.093641 0.093155 0.092673 0.092196 0.092666 0.094113 0.095605 0.097145 0.096929 0.094979 0.093106 0.091305 0.089908 0.088880 0.087875 0.086893 0.085814 0.084648 0.083512 0.082407 0.081947 0.082111 0.082276 0.082441 0.082697 0.083044 0.083395 0.083748 0.083784 0.083502 0.083222 0.082943 0.082510 0.081927 0.081352 0.080785 0.081207 0.082650 0.084145 0.085695 0.085668 0.084068 0.082526 0.081040 0.080104 0.079680 0.079261 0.078846 0.078466 0.078118 0.077774 0.077432 0.076947 0.076323 0.075709 0.075104 0.075284 0.076258 0.077258 0.078284 0.078560 0.078068 0.077582 0.077102 0.076606 0.076096 0.075592 0.075094 0.075412 0.076564 0.077752 0.078978 0.079084 0.078062 0.077065 0.076093 0.075232 0.074476 0.073734 0.073007 0.072462 0.072091 0.071724 0.071361 0.071175 0.071163 0.071152 0.071141 0.071257 0.071503 0.071750 0.071999 0.071680 0.070808 0.069958 0.069127 0.068696 0.068650 0.068605 0.068559 0.068862 0.069523 0.070196 0.070883 0.070883 0.070196 0.069523 0.068863 0.068419 0.068185 0.067953 0.067722 0.067371 0.066904 0.066443 0.065988 0.065612 0.065310 0.065011 0.064715 0.064962 0.065764 0.066586 0.067429 0.067353 0.066365 0.065405 0.064472 0.064090 0.064240 0.064391 0.064542 0.064862 0.065355 0.065855 0.066364 0.066330 0.065757 0.065193 0.064639 0.063935 0.063090 0.062267 0.061465 0.061292 0.061738 0.062190 0.062649 0.062567 0.061947 0.061339 0.060743 0.060869 0.061726 0.062607 0.063514 0.063733 0.063250 0.062774 0.062305 0.062423 0.063136 0.063865 0.064611 0.065235 0.065729 0.066232 0.066741 0.066937 0.066813 0.066689 0.066565 0.066132 0.065402 0.064688 0.063989 0.063837 0.064226 0.064620 0.065018 0.064961 0.064452 0.063951 0.063458 0.063712 0.064732 0.065786 0.066874 0.066949 0.066004 0.065086 0.064193 0.064171 0.065019 0.065890 0.066784 0.067519 0.068083 0.068657 0.069240 0.069346 0.068971 0.068600 0.068233 0.067709 0.067035 0.066375 0.065728 0.065652 0.066145 0.066645 0.067153 0.066995 0.066179 0.065384 0.064607 0.064360 0.064630 0.064902 0.065177 0.065142 0.064799 0.064459 0.064123 0.064172 0.064606 0.065046 0.065492 0.065879 0.066205 0.066534 0.066866 0.066651 0.065900 0.065165 0.064446 0.063880 0.063459 0.063043 0.062633 0.062399 0.062338 0.062277 0.062216 0.061844 0.061170 0.060510 0.059865 0.059891 0.060591 0.061307 0.062041 0.062117 0.061532 0.060957 0.060393 0.060022 0.059838 0.059655 0.059473 0.059367 0.059336 0.059306 0.059276 0.059088 0.058745 0.058407 0.058072 0.057437 0.056522 0.055635 0.054775 0.054418 0.054544 0.054670 0.054797 0.054713 0.054422
0.185309 0.176544 0.166442 0.157432 0.149348 0.143175 0.138542 0.134199 0.130121 0.127444 0.126010 0.124608 0.123237 0.123424 0.125184 0.126995 0.128860 0.128358 0.125546 0.122854 0.120275 0.117240 0.113824 0.110602 0.107557 0.107899 0.111693 0.115764 0.120142 0.120055 0.115521 0.111316 0.107407 0.104907 0.103635 0.102393 0.101181 0.099306 0.096841 0.094495 0.092260 0.091451 0.091993 0.092542 0.093097 0.093896 0.094949 0.096027 0.097129 0.097334 0.096632 0.095939 0.095256 0.094343 0.093213 0.092109 0.091032 0.091731 0.094289 0.096995 0.099860 0.100163 0.097857 0.095655 0.093550 0.091593 0.089770 0.088018 0.086333 0.084903 0.083706 0.082542 0.081409 0.081132 0.081693 0.082262 0.082838 0.083391 0.083918 0.084452 0.084992 0.085077 0.084702 0.084331 0.083963 0.083163 0.081956 0.080783 0.079643 0.080205 0.082544 0.085024 0.087658 0.087972 0.085918 0.083958 0.082085 0.080791 0.080026 0.079274 0.078537 0.077931 0.077452 0.076979 0.076512 0.076197 0.076030 0.075865 0.075700 0.076250 0.077547 0.078889 0.080278 0.080553 0.079690 0.078846 0.078019 0.077137 0.076202 0.075290 0.074399 0.074858 0.076719 0.078674 0.080731 0.081134 0.079833 0.078574 0.077353 0.076116 0.074866 0.073657 0.072485 0.071722 0.071342 0.070966 0.070594 0.070590 0.070955 0.071324 0.071696 0.072096 0.072523 0.072955 0.073393 0.073101 0.072098 0.071122 0.070172 0.069445 0.068927 0.068417 0.067915 0.068306 0.069623 0.070992 0.072416 0.072755 0.071980 0.071222 0.070479 0.069754 0.069047 0.068354 0.067675 0.067114 0.066668 0.066227 0.065792 0.065523 0.065417 0.065311 0.065205 0.065656 0.066685 0.067748 0.068845 0.068716 0.067374 0.066083 0.064841 0.064159 0.064004 0.063849 0.063695 0.064190 0.065366 0.066584 0.067850 0.068004 0.067033 0.066088 0.065171 0.064191 0.063156 0.062155 0.061184 0.060934 0.061387 0.061846 0.062313 0.062461 0.062288 0.062115 0.061944 0.062234 0.063000 0.063784 0.064589 0.064776 0.064335 0.063899 0.063470 0.063437 0.063797 0.064162 0.064531 0.065276 0.066422 0.067609 0.068839 0.069263 0.068851 0.068444 0.068041 0.067274 0.066166 0.065095 0.064057 0.063769 0.064210 0.064658 0.065112 0.065284 0.065171 0.065057 0.064944 0.065441 0.066577 0.067752 0.068970 0.068992 0.067815 0.066677 0.065578 0.065279 0.065759 0.066247 0.066742 0.067617 0.068901 0.070235 0.071622 0.071998 0.071331 0.070676 0.070033 0.069110 0.067928 0.066786 0.065682 0.065446 0.066059 0.066684 0.067321 0.067346 0.066758 0.066180 0.065612 0.065484 0.065792 0.066103 0.066417 0.066341 0.065878 0.065422 0.064972 0.064823 0.064969 0.065117 0.065265 0.065843 0.066873 0.067936 0.069034 0.069017 0.067887 0.066794 0.065736 0.064716 0.063732 0.062778 0.061852 0.061492 0.061680 0.061868 0.062058 0.062074 0.061916 0.061758 0.061601 0.061930 0.062761 0.063614 0.064491 0.064488 0.063604 0.062744 0.061908 0.061192 0.060589 0.059998 0.059418 0.059375 0.059866 0.060365 0.060872 0.060870 0.060358 0.059854 0.059359 0.058471 0.057226 0.056033 0.054889 0.054464 0.054724 0.054988 0.055254 0.055407 0.055447
0.190361 0.180961 0.169086 0.158673 0.149469 0.143152 0.139122 0.135313 0.131707 0.129125 0.127457 0.125832 0.124248 0.124466 0.126508 0.128617 0.130798 0.130030 0.126415 0.122996 0.119757 0.116572 0.113446 0.110484 0.107673 0.108074 0.111761 0.115709 0.119946 0.120152 0.116287 0.112663 0.109258 0.106637 0.104701 0.102834 0.101032 0.098924 0.096550 0.094287 0.092128 0.091436 0.092145 0.092866 0.093598 0.094557 0.095757 0.096988 0.098251 0.098336 0.097235 0.096158 0.095105 0.094098 0.093133 0.092188 0.091262 0.091971 0.094393 0.096946 0.099641 0.100122 0.098325 0.096591 0.094918 0.092888 0.090552 0.088330 0.086214 0.084677 0.083661 0.082670 0.081702 0.081528 0.082138 0.082757 0.083386 0.084009 0.084626 0.085252 0.085888 0.085850 0.085141 0.084443 0.083757 0.082850 0.081736 0.080652 0.079596 0.080178 0.082471 0.084900 0.087475 0.087982 0.086347 0.084772 0.083254 0.081907 0.080719 0.079564 0.078441 0.077689 0.077286 0.076887 0.076492 0.076275 0.076232 0.076189 0.076146 0.076836 0.078299 0.079819 0.081399 0.081612 0.080437 0.079295 0.078185 0.077215 0.076376 0.075554 0.074750 0.075202 0.076957 0.078796 0.080725 0.081244 0.080298 0.079375 0.078472 0.077181 0.075539 0.073966 0.072456 0.071583 0.071300 0.071020 0.070742 0.070816 0.071244 0.071677 0.072115 0.072599 0.073130 0.073668 0.074215 0.073868 0.072652 0.071475 0.070336 0.069516 0.068995 0.068482 0.067976 0.068354 0.069644 0.070984 0.072376 0.072865 0.072413 0.071968 0.071527 0.070809 0.069828 0.068874 0.067946 0.067273 0.066841 0.066414 0.065993 0.065776 0.065759 0.065743 0.065726 0.066271 0.067408 0.068584 0.069801 0.069613 0.068041 0.066538 0.065100 0.064297 0.064082 0.063869 0.063657 0.064187 0.065497 0.066861 0.068283 0.068602 0.067786 0.066990 0.066212 0.065168 0.063884 0.062650 0.061462 0.061088 0.061498 0.061913 0.062334 0.062562 0.062592 0.062622 0.062653 0.063070 0.063891 0.064734 0.065599 0.065769 0.065233 0.064706 0.064187 0.064056 0.064309 0.064563 0.064819 0.065523 0.066704 0.067928 0.069198 0.069749 0.069547 0.069346 0.069147 0.068355 0.067012 0.065721 0.064478 0.064104 0.064568 0.065039 0.065516 0.065718 0.065638 0.065558 0.065479 0.066077 0.067391 0.068758 0.070182 0.070189 0.068780 0.067426 0.066124 0.065708 0.066145 0.066588 0.067037 0.067936 0.069320 0.070761 0.072264 0.072846 0.072463 0.072084 0.071709 0.070703 0.069119 0.067604 0.066154 0.065749 0.066353 0.066967 0.067593 0.067631 0.067078 0.066533 0.065998 0.066012 0.066575 0.067149 0.067732 0.067683 0.067006 0.066341 0.065690 0.065422 0.065528 0.065633 0.065740 0.066311 0.067373 0.068470 0.069602 0.069725 0.068826 0.067950 0.067097 0.065964 0.064581 0.063255 0.061982 0.061513 0.061812 0.062114 0.062418 0.062527 0.062438 0.062348 0.062259 0.062708 0.063718 0.064761 0.065839 0.065804 0.064659 0.063553 0.062485 0.061644 0.061013 0.060395 0.059790 0.059751 0.060277 0.060812 0.061356 0.061468 0.061144 0.060822 0.060504 0.059561 0.058050 0.056614 0.055247 0.054774 0.055149 0.055529 0.055915 0.056083 0.056029
0.190398 0.181859 0.169629 0.158940 0.149518 0.143795 0.141039 0.138385 0.135830 0.133441 0.131205 0.129042 0.126950 0.126686 0.128227 0.129807 0.131425 0.129904 0.125453 0.121298 0.117408 0.114712 0.113060 0.111455 0.109895 0.110046 0.111923 0.113865 0.115875 0.115890 0.113908 0.111992 0.110140 0.107816 0.105084 0.102487 0.100015 0.098117 0.096735 0.095392 0.094085 0.093506 0.093629 0.093753 0.093877 0.094540 0.095766 0.097024 0.098315 0.098175 0.096615 0.095104 0.093639 0.092921 0.092917 0.092912 0.092907 0.093405 0.094422 0.095461 0.096524 0.096812 0.096312 0.095817 0.095326 0.093759 0.091219 0.088814 0.086531 0.085124 0.084512 0.083908 0.083313 0.083170 0.083475 0.083782 0.084092 0.084550 0.085161 0.085781 0.086411 0.086074 0.084793 0.083549 0.082342 0.081591 0.081272 0.080956 0.080642 0.081124 0.082430 0.083779 0.085173 0.085695 0.085312 0.084933 0.084556 0.083487 0.081778 0.080136 0.078559 0.077734 0.077613 0.077492 0.077372 0.077186 0.076935 0.076686 0.076439 0.077024 0.078482 0.079996 0.081569 0.081659 0.080257 0.078901 0.077591 0.076840 0.076618 0.076397 0.076177 0.076468 0.077281 0.078112 0.078960 0.079398 0.079411 0.079424 0.079437 0.078441 0.076510 0.074671 0.072919 0.072037 0.071963 0.071890 0.071816 0.071867 0.072041 0.072216 0.072393 0.072753 0.073302 0.073860 0.074426 0.073937 0.072435 0.070992 0.069605 0.068906 0.068853 0.068800 0.068747 0.069006 0.069584 0.070171 0.070768 0.071195 0.071447 0.071700 0.071955 0.071556 0.070523 0.069520 0.068544 0.067853 0.067430 0.067012 0.066599 0.066378 0.066344 0.066311 0.066278 0.066805 0.067917 0.069067 0.070257 0.070006 0.068345 0.066761 0.065248 0.064504 0.064477 0.064451 0.064425 0.064851 0.065750 0.066673 0.067623 0.068066 0.067981 0.067897 0.067813 0.066933 0.065319 0.063781 0.062314 0.061761 0.062076 0.062393 0.062714 0.062870 0.062859 0.062847 0.062835 0.063333 0.064366 0.065433 0.066536 0.066705 0.065927 0.065167 0.064424 0.064258 0.064662 0.065070 0.065483 0.065980 0.066564 0.067158 0.067763 0.068318 0.068818 0.069326 0.069842 0.069368 0.067945 0.066579 0.065267 0.064856 0.065312 0.065773 0.066242 0.066265 0.065843 0.065426 0.065014 0.065555 0.067097 0.068713 0.070410 0.070448 0.068823 0.067272 0.065789 0.065432 0.066164 0.066913 0.067680 0.068482 0.069324 0.070186 0.071070 0.071760 0.072245 0.072736 0.073234 0.072511 0.070638 0.068858 0.067166 0.066578 0.067037 0.067502 0.067973 0.067847 0.067131 0.066430 0.065743 0.065912 0.066950 0.068022 0.069129 0.069184 0.068184 0.067213 0.066268 0.065967 0.066290 0.066617 0.066947 0.067307 0.067697 0.068092 0.068491 0.068670 0.068625 0.068580 0.068535 0.067673 0.066052 0.064508 0.063035 0.062463 0.062744 0.063029 0.063316 0.063213 0.062724 0.062242 0.061768 0.062126 0.063346 0.064616 0.065937 0.065928 0.064590 0.063305 0.062070 0.061346 0.061096 0.060849 0.060604 0.060509 0.060564 0.060618 0.060673 0.060812 0.061036 0.061261 0.061489 0.060711 0.059003 0.057389 0.055860 0.055358 0.055829 0.056308 0.056795 0.056737 0.056139
0.190437 0.182766 0.170175 0.159208 0.149568 0.144444 0.143008 0.141600 0.140220 0.138055 0.135179 0.132420 0.129772 0.128985 0.129994 0.131018 0.132059 0.129778 0.124506 0.119646 0.115150 0.112910 0.112676 0.112443 0.112211 0.112092 0.112085 0.112079 0.112072 0.111920 0.111623 0.111329 0.111036 0.109022 0.105470 0.102142 0.099018 0.097324 0.096921 0.096522 0.096126 0.095672 0.095162 0.094657 0.094157 0.094523 0.095774 0.097059 0.098379 0.098015 0.096003 0.094072 0.092218 0.091774 0.092701 0.093647 0.094612 0.094884 0.094451 0.094022 0.093597 0.093714 0.094380 0.095054 0.095739 0.094647 0.091897 0.089303 0.086851 0.085576 0.085379 0.085184 0.084989 0.084880 0.084856 0.084833 0.084809 0.085097 0.085703 0.086317 0.086941 0.086299 0.084448 0.082674 0.080973 0.080369 0.080813 0.081262 0.081716 0.082093 0.082389 0.082688 0.082990 0.083524 0.084302 0.085093 0.085900 0.085130 0.082865 0.080717 0.078678 0.077778 0.077942 0.078107 0.078272 0.078119 0.077652 0.077190 0.076734 0.077214 0.078666 0.080174 0.081741 0.081707 0.080077 0.078511 0.077005 0.076469 0.076862 0.077259 0.077660 0.077778 0.077608 0.077439 0.077271 0.077634 0.078543 0.079473 0.080425 0.079743 0.077506 0.075391 0.073388 0.072497 0.072638 0.072781 0.072924 0.072949 0.072856 0.072764 0.072672 0.072907 0.073475 0.074052 0.074638 0.074007 0.072219 0.070515 0.068890 0.068306 0.068711 0.069121 0.069536 0.069671 0.069524 0.069377 0.069230 0.069601 0.070506 0.071435 0.072388 0.072319 0.071232 0.070177 0.069153 0.068443 0.068029 0.067620 0.067216 0.066990 0.066940 0.066890 0.066840 0.067346 0.068434 0.069558 0.070719 0.070404 0.068652 0.066984 0.065396 0.064712 0.064878 0.065044 0.065211 0.065530 0.066005 0.066487 0.066976 0.067539 0.068178 0.068829 0.069493 0.068797 0.066820 0.064954 0.063189 0.062449 0.062664 0.062881 0.063099 0.063182 0.063127 0.063073 0.063019 0.063599 0.064848 0.066147 0.067500 0.067669 0.066636 0.065634 0.064662 0.064462 0.065019 0.065585 0.066162 0.066444 0.066425 0.066406 0.066387 0.066943 0.068104 0.069306 0.070551 0.070412 0.068905 0.067461 0.066076 0.065626 0.066072 0.066525 0.066984 0.066823 0.066049 0.065294 0.064556 0.065041 0.066806 0.068669 0.070639 0.070709 0.068867 0.067119 0.065457 0.065158 0.066183 0.067241 0.068334 0.069038 0.069328 0.069620 0.069914 0.070706 0.072028 0.073400 0.074826 0.074415 0.072225 0.070160 0.068210 0.067427 0.067734 0.068044 0.068357 0.068065 0.067185 0.066327 0.065490 0.065813 0.067330 0.068919 0.070584 0.070753 0.069405 0.068107 0.066857 0.066521 0.067071 0.067631 0.068200 0.068333 0.068024 0.067719 0.067415 0.067647 0.068425 0.069222 0.070037 0.069472 0.067593 0.065812 0.064123 0.063442 0.063705 0.063971 0.064239 0.063914 0.063012 0.062136 0.061284 0.061555 0.062979 0.064471 0.066035 0.066052 0.064521 0.063059 0.061661 0.061050 0.061180 0.061310 0.061440 0.061287 0.060853 0.060426 0.060005 0.060169 0.060928 0.061707 0.062506 0.061907 0.059988 0.058184 0.056486 0.055955 0.056526 0.057108 0.057703 0.057408 0.056250
0.190475 0.183683 0.170725 0.159476 0.149618 0.145099 0.145033 0.144968 0.144903 0.143000 0.139402 0.135980 0.132722 0.131370 0.131810 0.132253 0.132699 0.129653 0.123573 0.118038 0.112977 0.111164 0.112295 0.113449 0.114627 0.114216 0.112248 0.110347 0.108510 0.108212 0.109429 0.110673 0.111946 0.110256 0.105859 0.101800 0.098041 0.096544 0.097108 0.097680 0.098258 0.097941 0.096745 0.095579 0.094440 0.094506 0.095783 0.097095 0.098443 0.097855 0.095399 0.093063 0.090839 0.090655 0.092487 0.094394 0.096381 0.096411 0.094480 0.092625 0.090842 0.090809 0.092523 0.094304 0.096154 0.095551 0.092585 0.089797 0.087172 0.086032 0.086265 0.086499 0.086734 0.086662 0.086284 0.085910 0.085539 0.085651 0.086251 0.086860 0.087477 0.086525 0.084105 0.081817 0.079650 0.079184 0.080359 0.081571 0.082819 0.083084 0.082349 0.081626 0.080915 0.081461 0.083315 0.085255 0.087287 0.086838 0.083981 0.081306 0.078796 0.077823 0.078274 0.078731 0.079194 0.079075 0.078382 0.077700 0.077031 0.077404 0.078851 0.080353 0.081913 0.081755 0.079899 0.078125 0.076428 0.076100 0.077107 0.078141 0.079202 0.079133 0.077938 0.076779 0.075653 0.075947 0.077694 0.079522 0.081439 0.081088 0.078528 0.076124 0.073863 0.072963 0.073327 0.073694 0.074065 0.074064 0.073691 0.073321 0.072954 0.073062 0.073649 0.074245 0.074851 0.074076 0.072004 0.070045 0.068189 0.067717 0.068570 0.069445 0.070343 0.070350 0.069464 0.068600 0.067758 0.068076 0.069589 0.071171 0.072827 0.073098 0.071955 0.070847 0.069772 0.069043 0.068639 0.068239 0.067844 0.067615 0.067547 0.067479 0.067412 0.067897 0.068959 0.070055 0.071187 0.070807 0.068961 0.067210 0.065545 0.064922 0.065283 0.065648 0.066017 0.066222 0.066262 0.066302 0.066341 0.067019 0.068375 0.069787 0.071258 0.070767 0.068392 0.066171 0.064090 0.063153 0.063265 0.063377 0.063489 0.063496 0.063399 0.063301 0.063204 0.063866 0.065337 0.066878 0.068492 0.068660 0.067360 0.066108 0.064902 0.064666 0.065379 0.066109 0.066854 0.066915 0.066287 0.065670 0.065065 0.065623 0.067405 0.069286 0.071275 0.071487 0.069892 0.068366 0.066905 0.066414 0.066851 0.067294 0.067743 0.067389 0.066257 0.065163 0.064104 0.064535 0.066517 0.068625 0.070870 0.070972 0.068911 0.066967 0.065129 0.064886 0.066202 0.067573 0.069001 0.069602 0.069331 0.069063 0.068796 0.069682 0.071812 0.074077 0.076489 0.076421 0.073885 0.071512 0.069287 0.068299 0.068447 0.068596 0.068745 0.068285 0.067238 0.066224 0.065239 0.065714 0.067714 0.069839 0.072102 0.072395 0.070670 0.069026 0.067456 0.067084 0.067871 0.068676 0.069501 0.069391 0.068355 0.067349 0.066373 0.066654 0.068227 0.069875 0.071606 0.071370 0.069206 0.067170 0.065251 0.064453 0.064696 0.064942 0.065190 0.064630 0.063304 0.062031 0.060808 0.060994 0.062616 0.064326 0.066133 0.066177 0.064452 0.062814 0.061258 0.060758 0.061263 0.061777 0.062300 0.062085 0.061146 0.060235 0.059351 0.059540 0.060821 0.062159 0.063557 0.063150 0.061006 0.059003 0.057127 0.056565 0.057240 0.057931 0.058640 0.058094 0.056361
0.188329 0.181988 0.170006 0.159504 0.150225 0.145831 0.145538 0.145245 0.144954 0.143222 0.140149 0.137206 0.134384 0.132758 0.132245 0.131736 0.131232 0.127952 0.122296 0.117118 0.112362 0.110738 0.111985 0.113260 0.114564 0.114043 0.111747 0.109541 0.107421 0.107092 0.108523 0.109991 0.111501 0.110019 0.105776 0.101848 0.098202 0.096866 0.097657 0.098462 0.099280 0.098970 0.097554 0.096177 0.094839 0.094677 0.095679 0.096703 0.097749 0.097101 0.094826 0.092655 0.090581 0.090421 0.092154 0.093955 0.095828 0.095712 0.093622 0.091622 0.089705 0.089676 0.091531 0.093464 0.095480 0.095098 0.092375 0.089804 0.087372 0.086307 0.086513 0.086720 0.086928 0.086881 0.086580 0.086281 0.085984 0.085957 0.086200 0.086445 0.086691 0.085632 0.083360 0.081205 0.079159 0.078769 0.079985 0.081239 0.082533 0.082703 0.081735 0.080789 0.079864 0.080389 0.082421 0.084559 0.086810 0.086522 0.083745 0.081140 0.078692 0.077743 0.078186 0.078634 0.079087 0.079022 0.078441 0.077869 0.077304 0.077572 0.078688 0.079837 0.081020 0.080806 0.079216 0.077687 0.076216 0.075979 0.076953 0.077952 0.078977 0.078830 0.077524 0.076261 0.075038 0.075327 0.077162 0.079090 0.081116 0.080902 0.078483 0.076203 0.074053 0.073182 0.073503 0.073826 0.074153 0.074162 0.073854 0.073548 0.073245 0.073247 0.073554 0.073864 0.074176 0.073376 0.071532 0.069779 0.068110 0.067674 0.068425 0.069193 0.069979 0.069898 0.068958 0.068043 0.067152 0.067461 0.069003 0.070619 0.072311 0.072667 0.071646 0.070653 0.069688 0.069004 0.068588 0.068176 0.067768 0.067567 0.067568 0.067569 0.067570 0.067985 0.068831 0.069698 0.070588 0.070191 0.068550 0.066985 0.065489 0.064900 0.065169 0.065441 0.065715 0.065859 0.065872 0.065885 0.065899 0.066583 0.067981 0.069438 0.070960 0.070607 0.068434 0.066391 0.064466 0.063503 0.063418 0.063334 0.063251 0.063213 0.063220 0.063227 0.063234 0.063884 0.065217 0.066607 0.068058 0.068199 0.067014 0.065870 0.064764 0.064539 0.065177 0.065828 0.066492 0.066471 0.065768 0.065079 0.064404 0.064940 0.066748 0.068660 0.070684 0.071038 0.069670 0.068354 0.067087 0.066626 0.066939 0.067254 0.067573 0.067196 0.066146 0.065129 0.064143 0.064531 0.066343 0.068260 0.070292 0.070418 0.068619 0.066910 0.065283 0.065093 0.066313 0.067579 0.068895 0.069389 0.069025 0.068664 0.068308 0.069180 0.071378 0.073721 0.076222 0.076362 0.074115 0.071997 0.069997 0.069013 0.068963 0.068914 0.068864 0.068351 0.067394 0.066464 0.065558 0.066025 0.067924 0.069935 0.072068 0.072292 0.070569 0.068926 0.067358 0.066986 0.067770 0.068572 0.069393 0.069232 0.068102 0.067008 0.065949 0.066207 0.067814 0.069501 0.071275 0.071129 0.069087 0.067159 0.065336 0.064534 0.064681 0.064828 0.064976 0.064405 0.063152 0.061947 0.060787 0.060914 0.062344 0.063843 0.065415 0.065414 0.063839 0.062338 0.060906 0.060516 0.061129 0.061753 0.062391 0.062178 0.061131 0.060118 0.059138 0.059282 0.060566 0.061907 0.063309 0.063007 0.061048 0.059208 0.057475 0.056909 0.057442 0.057985 0.058538 0.057931 0.056235
0.184145 0.177824 0.168049 0.159292 0.151403 0.146643 0.144489 0.142397 0.140365 0.138677 0.137310 0.135969 0.134654 0.133082 0.131271 0.129509 0.127793 0.124796 0.120695 0.116856 0.113253 0.111604 0.111745 0.111887 0.112030 0.111596 0.110599 0.109620 0.108659 0.108403 0.108842 0.109285 0.109731 0.108331 0.105223 0.102288 0.099512 0.098313 0.098581 0.098850 0.099120 0.098680 0.097547 0.096440 0.095358 0.095038 0.095464 0.095894 0.096328 0.095780 0.094283 0.092832 0.091425 0.091058 0.091705 0.092362 0.093029 0.092881 0.091925 0.090988 0.090070 0.090188 0.091348 0.092538 0.093760 0.093326 0.091281 0.089323 0.087448 0.086397 0.086114 0.085832 0.085553 0.085516 0.085721 0.085928 0.086135 0.086009 0.085552 0.085101 0.084654 0.083686 0.082232 0.080828 0.079472 0.079100 0.079687 0.080283 0.080888 0.080986 0.080573 0.080165 0.079760 0.080233 0.081616 0.083046 0.084528 0.084226 0.082178 0.080227 0.078367 0.077539 0.077679 0.077820 0.077962 0.077964 0.077827 0.077690 0.077554 0.077717 0.078183 0.078654 0.079131 0.078927 0.078054 0.077200 0.076364 0.076102 0.076403 0.076707 0.077013 0.076906 0.076389 0.075880 0.075377 0.075721 0.076937 0.078192 0.079489 0.079205 0.077374 0.075625 0.073953 0.073150 0.073159 0.073169 0.073178 0.073234 0.073337 0.073440 0.073544 0.073461 0.073192 0.072926 0.072661 0.071948 0.070813 0.069713 0.068647 0.068176 0.068277 0.068377 0.068479 0.068361 0.068026 0.067695 0.067367 0.067706 0.068732 0.069790 0.070881 0.071066 0.070330 0.069610 0.068904 0.068328 0.067877 0.067432 0.066993 0.066851 0.067003 0.067155 0.067309 0.067608 0.068057 0.068513 0.068974 0.068609 0.067444 0.066318 0.065228 0.064645 0.064541 0.064438 0.064334 0.064474 0.064858 0.065247 0.065641 0.066227 0.067014 0.067821 0.068648 0.068345 0.066941 0.065593 0.064299 0.063486 0.063119 0.062757 0.062399 0.062347 0.062599 0.062853 0.063110 0.063652 0.064495 0.065360 0.066249 0.066341 0.065630 0.064933 0.064252 0.064084 0.064422 0.064763 0.065108 0.065150 0.064886 0.064624 0.064365 0.064856 0.066133 0.067461 0.068843 0.069120 0.068263 0.067428 0.066613 0.066252 0.066330 0.066409 0.066487 0.066255 0.065720 0.065193 0.064675 0.065029 0.066283 0.067586 0.068942 0.069085 0.067999 0.066947 0.065928 0.065787 0.066516 0.067260 0.068022 0.068411 0.068416 0.068420 0.068424 0.069178 0.070734 0.072361 0.074064 0.074248 0.072889 0.071579 0.070316 0.069558 0.069273 0.068992 0.068712 0.068264 0.067654 0.067054 0.066465 0.066758 0.067956 0.069199 0.070488 0.070458 0.069113 0.067818 0.066571 0.066233 0.066777 0.067329 0.067891 0.067874 0.067279 0.066695 0.066120 0.066284 0.067195 0.068132 0.069096 0.068791 0.067252 0.065781 0.064372 0.063680 0.063660 0.063641 0.063621 0.063258 0.062565 0.061886 0.061221 0.061311 0.062161 0.063035 0.063934 0.063823 0.062713 0.061641 0.060605 0.060324 0.060778 0.061239 0.061707 0.061561 0.060808 0.060073 0.059356 0.059386 0.060167 0.060968 0.061791 0.061495 0.060110 0.058787 0.057521 0.056979 0.057121 0.057263 0.057407 0.056933 0.055874
0.180143 0.173847 0.166136 0.159080 0.152600 0.147464 0.143455 0.139658 0.136058 0.134411 0.134582 0.134754 0.134926 0.133408 0.130312 0.127356 0.124531 0.121792 0.119137 0.116594 0.114158 0.112483 0.111507 0.110548 0.109605 0.109251 0.109475 0.109700 0.109925 0.109745 0.109163 0.108587 0.108017 0.106695 0.104675 0.102731 0.100857 0.099804 0.099522 0.099241 0.098961 0.098391 0.097541 0.096705 0.095883 0.095401 0.095250 0.095099 0.094949 0.094495 0.093747 0.093010 0.092284 0.091703 0.091261 0.090823 0.090390 0.090212 0.090287 0.090363 0.090439 0.090705 0.091166 0.091631 0.092102 0.091618 0.090212 0.088848 0.087524 0.086487 0.085718 0.084962 0.084220 0.084192 0.084879 0.085577 0.086286 0.086061 0.084914 0.083798 0.082710 0.081827 0.081135 0.080455 0.079787 0.079435 0.079392 0.079349 0.079306 0.079338 0.079444 0.079550 0.079657 0.080078 0.080826 0.081587 0.082363 0.082049 0.080669 0.079335 0.078045 0.077336 0.077180 0.077023 0.076868 0.076934 0.077222 0.077513 0.077806 0.077863 0.077683 0.077505 0.077327 0.077134 0.076926 0.076718 0.076512 0.076226 0.075862 0.075502 0.075145 0.075074 0.075288 0.075502 0.075719 0.076120 0.076713 0.077315 0.077926 0.077578 0.076296 0.075055 0.073854 0.073118 0.072819 0.072523 0.072229 0.072329 0.072827 0.073333 0.073845 0.073676 0.072834 0.072011 0.071206 0.070575 0.070108 0.069648 0.069193 0.068686 0.068129 0.067581 0.067041 0.066889 0.067119 0.067351 0.067584 0.067953 0.068464 0.068981 0.069507 0.069534 0.069062 0.068597 0.068137 0.067666 0.067182 0.066705 0.066235 0.066150 0.066447 0.066747 0.067050 0.067235 0.067300 0.067366 0.067432 0.067097 0.066373 0.065664 0.064970 0.064392 0.063925 0.063465 0.063011 0.063145 0.063875 0.064621 0.065385 0.065874 0.066075 0.066278 0.066482 0.066223 0.065511 0.064815 0.064133 0.063470 0.062823 0.062190 0.061569 0.061504 0.061990 0.062484 0.062986 0.063422 0.063788 0.064159 0.064534 0.064582 0.064301 0.064023 0.063747 0.063635 0.063684 0.063732 0.063781 0.063880 0.064028 0.064176 0.064326 0.064772 0.065529 0.066303 0.067096 0.067302 0.066912 0.066527 0.066146 0.065882 0.065732 0.065584 0.065436 0.065341 0.065299 0.065258 0.065216 0.065534 0.066223 0.066926 0.067644 0.067801 0.067391 0.066985 0.066585 0.066497 0.066720 0.066945 0.067171 0.067461 0.067817 0.068177 0.068540 0.069177 0.070101 0.071050 0.072026 0.072248 0.071703 0.071166 0.070638 0.070111 0.069587 0.069070 0.068561 0.068177 0.067915 0.067655 0.067397 0.067507 0.067989 0.068478 0.068974 0.068714 0.067715 0.066745 0.065802 0.065497 0.065812 0.066130 0.066452 0.066568 0.066476 0.066384 0.066293 0.066360 0.066587 0.066816 0.067046 0.066603 0.065512 0.064457 0.063436 0.062848 0.062672 0.062496 0.062321 0.062152 0.061988 0.061824 0.061662 0.061713 0.061979 0.062248 0.062519 0.062308 0.061627 0.060960 0.060307 0.060134 0.060432 0.060734 0.061038 0.060955 0.060488 0.060028 0.059575 0.059491 0.059773 0.060057 0.060344 0.060053 0.059201 0.058372 0.057566 0.057048 0.056803 0.056560 0.056319 0.055970 0.055517
0.176311 0.170043 0.164267 0.158869 0.153816 0.148294 0.142436 0.137023 0.132007 0.130401 0.131961 0.133560 0.135198 0.133735 0.129366 0.125273 0.121431 0.118930 0.117617 0.116334 0.115078 0.113376 0.111270 0.109240 0.107283 0.107003 0.108373 0.109779 0.111222 0.111122 0.109486 0.107898 0.106355 0.105107 0.104133 0.103178 0.102240 0.101342 0.100481 0.099635 0.098803 0.098104 0.097534 0.096970 0.096413 0.095767 0.095037 0.094317 0.093608 0.093244 0.093216 0.093188 0.093161 0.092358 0.090821 0.089335 0.087896 0.087692 0.088707 0.089746 0.090810 0.091228 0.090984 0.090742 0.090500 0.089972 0.089167 0.088377 0.087600 0.086577 0.085325 0.084110 0.082928 0.082909 0.084053 0.085229 0.086439 0.086113 0.084285 0.082534 0.080853 0.080048 0.080067 0.080085 0.080104 0.079772 0.079099 0.078437 0.077786 0.077756 0.078346 0.078945 0.079553 0.079924 0.080051 0.080178 0.080306 0.079981 0.079215 0.078463 0.077725 0.077135 0.076686 0.076243 0.075804 0.075930 0.076627 0.077336 0.078059 0.078009 0.077191 0.076389 0.075604 0.075421 0.075829 0.076243 0.076660 0.076350 0.075328 0.074334 0.073365 0.073327 0.074217 0.075129 0.076064 0.076523 0.076490 0.076456 0.076423 0.076016 0.075247 0.074494 0.073755 0.073086 0.072482 0.071888 0.071303 0.071446 0.072325 0.073226 0.074149 0.073892 0.072479 0.071119 0.069809 0.069254 0.069418 0.069582 0.069748 0.069203 0.067982 0.066802 0.065663 0.065480 0.066236 0.067010 0.067802 0.068203 0.068197 0.068191 0.068185 0.068067 0.067839 0.067613 0.067388 0.067015 0.066500 0.065993 0.065494 0.065464 0.065901 0.066344 0.066793 0.066866 0.066560 0.066258 0.065958 0.065650 0.065335 0.065023 0.064713 0.064141 0.063321 0.062521 0.061741 0.061871 0.062921 0.064007 0.065131 0.065525 0.065162 0.064803 0.064448 0.064229 0.064142 0.064055 0.063968 0.063453 0.062530 0.061633 0.060762 0.060684 0.061393 0.062119 0.062863 0.063193 0.063097 0.063001 0.062905 0.062914 0.063026 0.063138 0.063251 0.063192 0.062962 0.062734 0.062507 0.062658 0.063192 0.063734 0.064286 0.064688 0.064935 0.065184 0.065434 0.065578 0.065613 0.065649 0.065684 0.065516 0.065145 0.064779 0.064417 0.064452 0.064884 0.065322 0.065766 0.066047 0.066162 0.066278 0.066393 0.066565 0.066793 0.067023 0.067255 0.067222 0.066926 0.066632 0.066341 0.066537 0.067229 0.067935 0.068657 0.069175 0.069479 0.069786 0.070096 0.070353 0.070555 0.070758 0.070963 0.070674 0.069903 0.069148 0.068410 0.068090 0.068178 0.068267 0.068355 0.068273 0.068022 0.067773 0.067525 0.067055 0.066373 0.065705 0.065050 0.064777 0.064875 0.064974 0.065073 0.065311 0.065692 0.066077 0.066467 0.066437 0.065990 0.065549 0.065114 0.064549 0.063860 0.063186 0.062527 0.062038 0.061713 0.061392 0.061074 0.061083 0.061421 0.061763 0.062108 0.062120 0.061798 0.061480 0.061164 0.060863 0.060577 0.060293 0.060012 0.059944 0.060090 0.060237 0.060384 0.060362 0.060172 0.059984 0.059796 0.059596 0.059384 0.059173 0.058964 0.058678 0.058318 0.057963 0.057612 0.057118 0.056489 0.055873 0.055271 0.055038 0.055165
0.175112 0.169240 0.164874 0.160728 0.156785 0.151332 0.144694 0.138614 0.133025 0.131101 0.132534 0.133999 0.135497 0.133672 0.128784 0.124241 0.120007 0.117670 0.117022 0.116381 0.115747 0.114153 0.111676 0.109304 0.107032 0.106723 0.108343 0.110014 0.111737 0.111654 0.109772 0.107952 0.106192 0.105115 0.104680 0.104248 0.103820 0.103055 0.101966 0.100900 0.099856 0.098985 0.098277 0.097579 0.096891 0.095992 0.094894 0.093821 0.092772 0.092509 0.093018 0.093533 0.094053 0.093292 0.091310 0.089411 0.087589 0.087366 0.088717 0.090111 0.091548 0.091990 0.091407 0.090830 0.090261 0.089762 0.089329 0.088900 0.088476 0.087584 0.086252 0.084960 0.083706 0.083577 0.084562 0.085571 0.086604 0.086055 0.083983 0.082009 0.080125 0.079424 0.079846 0.080272 0.080703 0.080430 0.079467 0.078526 0.077607 0.077478 0.078130 0.078792 0.079466 0.079787 0.079746 0.079706 0.079665 0.079452 0.079071 0.078693 0.078318 0.077870 0.077350 0.076837 0.076330 0.076396 0.077036 0.077688 0.078350 0.078125 0.077027 0.075959 0.074920 0.074766 0.075484 0.076216 0.076963 0.076671 0.075362 0.074098 0.072875 0.072815 0.073910 0.075040 0.076204 0.076663 0.076393 0.076124 0.075857 0.075525 0.075129 0.074737 0.074350 0.073818 0.073150 0.072493 0.071848 0.071897 0.072641 0.073400 0.074176 0.073747 0.072155 0.070630 0.069168 0.068687 0.069146 0.069611 0.070082 0.069559 0.068086 0.066674 0.065319 0.065121 0.066059 0.067025 0.068020 0.068421 0.068208 0.067996 0.067785 0.067653 0.067599 0.067546 0.067492 0.067252 0.066828 0.066409 0.065996 0.065951 0.066272 0.066596 0.066924 0.066842 0.066352 0.065870 0.065395 0.065115 0.065025 0.064936 0.064847 0.064373 0.063530 0.062709 0.061910 0.062004 0.063000 0.064030 0.065093 0.065360 0.064810 0.064269 0.063738 0.063566 0.063749 0.063932 0.064117 0.063735 0.062806 0.061904 0.061027 0.060913 0.061554 0.062209 0.062877 0.063058 0.062743 0.062432 0.062123 0.062125 0.062437 0.062753 0.063072 0.063094 0.062821 0.062550 0.062281 0.062442 0.063039 0.063647 0.064267 0.064611 0.064670 0.064729 0.064788 0.064930 0.065155 0.065383 0.065611 0.065546 0.065189 0.064836 0.064487 0.064572 0.065096 0.065627 0.066168 0.066321 0.066081 0.065843 0.065607 0.065790 0.066399 0.067020 0.067652 0.067720 0.067221 0.066730 0.066245 0.066378 0.067136 0.067912 0.068706 0.069139 0.069199 0.069258 0.069318 0.069619 0.070168 0.070726 0.071293 0.071187 0.070413 0.069656 0.068915 0.068609 0.068726 0.068843 0.068961 0.068656 0.067939 0.067236 0.066548 0.066054 0.065746 0.065440 0.065137 0.064950 0.064876 0.064803 0.064730 0.064931 0.065412 0.065900 0.066395 0.066293 0.065598 0.064917 0.064251 0.063757 0.063428 0.063103 0.062781 0.062411 0.061995 0.061584 0.061179 0.061130 0.061436 0.061745 0.062058 0.061960 0.061456 0.060961 0.060473 0.060185 0.060090 0.059996 0.059902 0.059905 0.060006 0.060106 0.060207 0.060173 0.060005 0.059838 0.059672 0.059417 0.059076 0.058739 0.058405 0.058184 0.058073 0.057963 0.057853 0.057386 0.056579 0.055795 0.055032 0.054808 0.055111
0.176441 0.171351 0.168014 0.164804 0.161715 0.156859 0.150555 0.144739 0.139355 0.136668 0.136385 0.136102 0.135821 0.133220 0.128557 0.124209 0.120146 0.117914 0.117322 0.116737 0.116157 0.114807 0.112740 0.110746 0.108822 0.108379 0.109383 0.110406 0.111448 0.111317 0.110020 0.108753 0.107515 0.106720 0.106349 0.105981 0.105615 0.104959 0.104023 0.103104 0.102201 0.101096 0.099804 0.098543 0.097315 0.096073 0.094822 0.093602 0.092414 0.092266 0.093147 0.094046 0.094963 0.094521 0.092759 0.091061 0.089424 0.089184 0.090317 0.091480 0.092673 0.093002 0.092449 0.091903 0.091363 0.090966 0.090709 0.090454 0.090200 0.089572 0.088585 0.087619 0.086675 0.086291 0.086454 0.086618 0.086782 0.085889 0.084001 0.082195 0.080465 0.079902 0.080459 0.081024 0.081597 0.081424 0.080513 0.079623 0.078752 0.078476 0.078780 0.079087 0.079396 0.079668 0.079901 0.080136 0.080372 0.080401 0.080223 0.080045 0.079868 0.079596 0.079232 0.078872 0.078514 0.078386 0.078484 0.078583 0.078682 0.078210 0.077187 0.076191 0.075220 0.075115 0.075869 0.076638 0.077423 0.077193 0.075966 0.074777 0.073625 0.073486 0.074349 0.075232 0.076137 0.076539 0.076421 0.076304 0.076188 0.076064 0.075932 0.075801 0.075671 0.075362 0.074880 0.074403 0.073933 0.073732 0.073796 0.073860 0.073924 0.073244 0.071860 0.070527 0.069243 0.068838 0.069283 0.069734 0.070190 0.069749 0.068444 0.067187 0.065976 0.065779 0.066578 0.067397 0.068237 0.068609 0.068497 0.068386 0.068275 0.068254 0.068322 0.068391 0.068459 0.068394 0.068195 0.067997 0.067800 0.067666 0.067593 0.067521 0.067448 0.067162 0.066666 0.066178 0.065697 0.065447 0.065423 0.065400 0.065376 0.065098 0.064570 0.064051 0.063540 0.063564 0.064122 0.064691 0.065270 0.065374 0.065000 0.064630 0.064264 0.064154 0.064297 0.064440 0.064584 0.064323 0.063667 0.063024 0.062393 0.062216 0.062485 0.062756 0.063030 0.063016 0.062717 0.062421 0.062127 0.062153 0.062499 0.062849 0.063203 0.063338 0.063252 0.063166 0.063081 0.063211 0.063559 0.063912 0.064269 0.064540 0.064725 0.064911 0.065098 0.065295 0.065503 0.065713 0.065924 0.065975 0.065867 0.065760 0.065653 0.065715 0.065947 0.066181 0.066416 0.066349 0.065979 0.065614 0.065253 0.065446 0.066201 0.066975 0.067766 0.067982 0.067610 0.067242 0.066878 0.066975 0.067536 0.068106 0.068686 0.069070 0.069251 0.069433 0.069616 0.069976 0.070519 0.071069 0.071629 0.071648 0.071127 0.070613 0.070106 0.069760 0.069571 0.069383 0.069195 0.068642 0.067741 0.066862 0.066006 0.065655 0.065793 0.065931 0.066070 0.066032 0.065817 0.065603 0.065391 0.065398 0.065624 0.065852 0.066080 0.065929 0.065402 0.064884 0.064374 0.064136 0.064167 0.064197 0.064227 0.064010 0.063551 0.063098 0.062652 0.062298 0.062034 0.061772 0.061513 0.061241 0.060959 0.060679 0.060402 0.060223 0.060141 0.060059 0.059977 0.060016 0.060176 0.060337 0.060499 0.060380 0.059984 0.059592 0.059206 0.058958 0.058846 0.058734 0.058622 0.058527 0.058449 0.058371 0.058294 0.057857 0.057078 0.056319 0.055580 0.055263 0.055351
0.177791 0.173516 0.171275 0.169093 0.166965 0.162804 0.156911 0.151429 0.146318 0.142730 0.140466 0.138273 0.136147 0.132771 0.128330 0.124177 0.120284 0.118159 0.117624 0.117094 0.116569 0.115468 0.113824 0.112227 0.110673 0.110089 0.110444 0.110801 0.111161 0.110982 0.110269 0.109565 0.108870 0.108375 0.108072 0.107772 0.107473 0.106935 0.106166 0.105407 0.104659 0.103301 0.101379 0.099527 0.097742 0.096155 0.094750 0.093385 0.092059 0.092024 0.093278 0.094566 0.095890 0.095783 0.094254 0.092773 0.091337 0.091079 0.091976 0.092891 0.093825 0.094037 0.093516 0.093001 0.092491 0.092204 0.092133 0.092063 0.091993 0.091652 0.091048 0.090451 0.089862 0.089188 0.088433 0.087691 0.086962 0.085723 0.084020 0.082382 0.080808 0.080386 0.081082 0.081790 0.082511 0.082442 0.081588 0.080752 0.079932 0.079499 0.079442 0.079384 0.079327 0.079549 0.080057 0.080571 0.081092 0.081373 0.081408 0.081444 0.081480 0.081401 0.081209 0.081017 0.080827 0.080482 0.079987 0.079499 0.079016 0.078295 0.077348 0.076424 0.075522 0.075468 0.076258 0.077065 0.077889 0.077723 0.076579 0.075469 0.074390 0.074170 0.074793 0.075426 0.076070 0.076414 0.076450 0.076485 0.076521 0.076610 0.076753 0.076896 0.077040 0.076972 0.076693 0.076417 0.076142 0.075664 0.074989 0.074326 0.073675 0.072748 0.071567 0.070425 0.069317 0.068990 0.069421 0.069857 0.070298 0.069940 0.068807 0.067709 0.066646 0.066450 0.067105 0.067774 0.068455 0.068797 0.068789 0.068781 0.068772 0.068865 0.069061 0.069257 0.069454 0.069575 0.069618 0.069662 0.069705 0.069472 0.068968 0.068471 0.067981 0.067485 0.066983 0.066489 0.066001 0.065782 0.065826 0.065870 0.065914 0.065839 0.065644 0.065451 0.065259 0.065204 0.065285 0.065366 0.065447 0.065389 0.065191 0.064994 0.064799 0.064752 0.064854 0.064956 0.065059 0.064923 0.064552 0.064185 0.063822 0.063577 0.063445 0.063313 0.063183 0.062975 0.062691 0.062409 0.062130 0.062180 0.062560 0.062945 0.063335 0.063584 0.063689 0.063795 0.063900 0.063999 0.064089 0.064179 0.064270 0.064470 0.064781 0.065094 0.065411 0.065665 0.065855 0.066046 0.066239 0.066410 0.066560 0.066710 0.066861 0.066898 0.066821 0.066744 0.066667 0.066376 0.065878 0.065387 0.064903 0.065105 0.066005 0.066930 0.067881 0.068245 0.068003 0.067762 0.067524 0.067582 0.067940 0.068301 0.068667 0.069001 0.069304 0.069609 0.069917 0.070337 0.070872 0.071416 0.071968 0.072116 0.071855 0.071596 0.071339 0.070951 0.070437 0.069931 0.069431 0.068628 0.067543 0.066492 0.065473 0.065261 0.065840 0.066430 0.067030 0.067150 0.066785 0.066424 0.066066 0.065872 0.065838 0.065803 0.065769 0.065569 0.065208 0.064850 0.064497 0.064521 0.064922 0.065329 0.065741 0.065693 0.065187 0.064688 0.064197 0.063511 0.062644 0.061799 0.060977 0.060539 0.060469 0.060400 0.060331 0.060261 0.060191 0.060122 0.060052 0.060127 0.060348 0.060571 0.060795 0.060589 0.059963 0.059349 0.058748 0.058507 0.058618 0.058729 0.058841 0.058875 0.058830 0.058786 0.058742 0.058337 0.057586 0.056854 0.056140 0.055725 0.055594
